331.8938293457031 324.0412902832031 289.5992431640625 273.9830322265625 287.4746398925781 326.0735778808594 336.2691955566406 333.9984130859375 352.4899597167969 366.9755859375 366.35882568359375 342.3772277832031 310.8401184082031 295.8796691894531 311.5088195800781 333.19073486328125 353.46929931640625 359.03741455078125 354.1855163574219 359.0871887207031 385.18487548828125 391.25616455078125 392.1446228027344 418.96624755859375 424.2064208984375 394.0077819824219 379.0208435058594 366.7388610839844 332.82025146484375 290.66607666015625 267.4378967285156 274.7546691894531 311.8208923339844 349.97119140625 346.22271728515625 323.7652893066406 308.60430908203125 311.5173034667969 319.3328552246094 304.4432067871094 275.76995849609375 250.34494018554688 225.463134765625 209.70501708984375 190.13694763183594 174.78517150878906 189.07643127441406 191.95465087890625 185.93067932128906 186.30101013183594 168.32066345214844 159.6226348876953 187.00936889648438 194.0436248779297 192.38389587402344 211.88893127441406 222.5869598388672 195.06353759765625 189.1845245361328 206.08621215820312 216.5828399658203 244.70932006835938 252.15814208984375 219.13104248046875 202.07669067382812 191.81809997558594 166.28196716308594 142.552734375 140.03184509277344 145.62901306152344 135.2268829345703 147.58607482910156 172.7663116455078 185.58367919921875 181.30624389648438 169.5272979736328 179.95147705078125 187.61593627929688 187.05276489257812 197.41363525390625 214.43621826171875 223.11392211914062 199.1942901611328 165.5326385498047 134.49806213378906 142.89244079589844 179.13143920898438 230.8831024169922 227.83612060546875 197.95396423339844 164.7461700439453 142.2757568359375 137.11671447753906 168.59017944335938 204.44894409179688 202.58277893066406 192.86549377441406 177.59619140625 167.3941192626953 171.5956268310547 191.0465850830078 212.03736877441406 243.55691528320312 239.88714599609375 221.693603515625 216.42062377929688 205.45338439941406 219.41644287109375 244.47987365722656 226.64964294433594 223.73243713378906 246.5204315185547 253.80035400390625 250.103515625 261.7417907714844 271.7833251953125 262.0262451171875 273.07220458984375 289.85113525390625 289.57147216796875 275.91009521484375 235.43980407714844 201.6493377685547 174.18252563476562 152.02191162109375 174.70533752441406 191.60496520996094 209.32333374023438 232.10264587402344 233.56057739257812 233.79965209960938 242.76812744140625 228.4122314453125 229.00680541992188 253.8622283935547 275.9999084472656 275.15802001953125 264.7301330566406 253.6106414794922 225.8075408935547 205.56338500976562 189.27906799316406 172.52401733398438 178.27915954589844 196.7491455078125 212.16307067871094 210.647216796875 208.06185913085938 200.46737670898438 202.322998046875 206.17263793945312 220.2499237060547 238.12826538085938 250.50869750976562 252.08328247070312 241.67999267578125 239.0800018310547 259.3599853515625 263.2899169921875 267.0186462402344 256.3434143066406 224.94825744628906 226.0717315673828 241.12103271484375
309.02490234375 312.72900390625 284.72137451171875 268.6874694824219 284.877685546875 304.50146484375 314.95330810546875 316.8507385253906 330.5950012207031 344.9448547363281 360.5965881347656 365.9545593261719 329.5750427246094 293.5181579589844 303.1554260253906 328.72052001953125 349.08319091796875 336.78521728515625 325.88824462890625 346.3767395019531 371.8656311035156 377.0203552246094 379.5288391113281 408.7373962402344 427.8097839355469 391.96044921875 362.63214111328125 345.5118103027344 312.08343505859375 292.69000244140625 274.86920166015625 265.9754638671875 286.927001953125 326.5433044433594 318.8746032714844 296.6404724121094 289.80657958984375 302.99737548828125 314.05364990234375 298.2019958496094 274.27435302734375 263.9176025390625 254.0560302734375 239.07382202148438 222.9638214111328 213.30421447753906 218.48683166503906 221.0230712890625 211.86888122558594 203.4552459716797 177.1055450439453 161.42950439453125 174.40151977539062 178.038818359375 188.17984008789062 206.73056030273438 185.64381408691406 170.52786254882812 204.04129028320312 242.9342498779297 251.92904663085938 252.75051879882812 264.7347412109375 255.86590576171875 234.84251403808594 206.99273681640625 185.9915008544922 164.55271911621094 140.15200805664062 132.94195556640625 126.49561309814453 123.98179626464844 137.2228546142578 151.86099243164062 148.26954650878906 149.84681701660156 171.92628479003906 176.3878173828125 175.76856994628906 190.62831115722656 207.54689025878906 222.54652404785156 198.49649047851562 153.07582092285156 127.17562866210938 141.1826629638672 170.32107543945312 208.874755859375 225.09796142578125 186.6435089111328 141.7563934326172 119.40116882324219 129.1830291748047 167.36236572265625 189.08486938476562 183.641357421875 182.98434448242188 172.54885864257812 167.48300170898438 185.61715698242188 207.9138946533203 230.7651824951172 248.32821655273438 232.5352783203125 213.9218292236328 209.1717071533203 204.65306091308594 220.45437622070312 231.382080078125 215.78443908691406 223.98345947265625 247.10638427734375 251.28076171875 248.54563903808594 260.0797119140625 262.97003173828125 253.7359619140625 265.1871337890625 274.0745544433594 269.8930969238281 262.3419494628906 243.82562255859375 213.0376434326172 179.4960479736328 146.17881774902344 146.8338623046875 146.90968322753906 165.6201934814453 185.93038940429688 197.61032104492188 214.78280639648438 227.7667694091797 221.27857971191406 227.49327087402344 246.58033752441406 272.2325439453125 274.5722351074219 257.2413330078125 240.7679443359375 219.68942260742188 205.0989532470703 187.90577697753906 171.57028198242188 189.8771209716797 208.28428649902344 207.8307647705078 195.70367431640625 183.88340759277344 168.3529052734375 187.11705017089844 213.52159118652344 232.2855987548828 249.97021484375 249.96612548828125 246.02590942382812 232.83999633789062 244.9600067138672 266.3599853515625 257.7858581542969 254.85035705566406 254.24610900878906 230.6770477294922 214.65432739257812 220.06280517578125
279.9837951660156 270.3038330078125 245.3962860107422 244.2989959716797 268.7603454589844 275.3625793457031 286.6497497558594 297.7240905761719 309.2679443359375 313.005615234375 334.3740539550781 368.0965270996094 351.6483154296875 305.4424743652344 286.751220703125 299.7013244628906 320.98468017578125 315.9534912109375 326.7969970703125 358.4335021972656 363.6441955566406 365.35797119140625 371.02850341796875 395.1402282714844 415.3245849609375 395.13427734375 360.0426940917969 346.9687194824219 337.6090087890625 323.8063049316406 290.0995788574219 265.72393798828125 268.565185546875 288.6189880371094 277.7740173339844 277.4598693847656 290.6098327636719 321.22149658203125 325.4635009765625 298.07830810546875 287.7510070800781 290.38140869140625 277.29058837890625 265.07879638671875 260.6009216308594 243.07362365722656 214.77354431152344 206.51416015625 198.2577667236328 186.92869567871094 169.5387725830078 157.58419799804688 172.06771850585938 173.57339477539062 180.71710205078125 182.76588439941406 164.89776611328125 183.85684204101562 227.65386962890625 256.96185302734375 256.58026123046875 236.83055114746094 243.72738647460938 264.811767578125 255.73439025878906 219.0089874267578 205.33738708496094 198.53668212890625 163.33840942382812 149.33868408203125 147.71144104003906 127.27278900146484 115.470947265625 118.88880157470703 129.9449005126953 150.4580535888672 170.17169189453125 169.54931640625 177.96653747558594 208.96067810058594 214.49754333496094 208.10398864746094 182.1522216796875 144.9333038330078 124.9190902709961 132.21737670898438 151.001220703125 170.66944885253906 194.46029663085938 169.18206787109375 134.48870849609375 118.53864288330078 130.9107666015625 146.73123168945312 151.40765380859375 156.9217071533203 161.64312744140625 160.34677124023438 167.8374481201172 192.0913543701172 230.71998596191406 250.96563720703125 245.7909393310547 225.83041381835938 207.17727661132812 204.7493133544922 198.63778686523438 198.4049835205078 194.0382537841797 205.08116149902344 229.40602111816406 236.75482177734375 233.75543212890625 241.5033416748047 252.925537109375 259.2758483886719 249.66197204589844 257.09637451171875 265.7257080078125 259.04913330078125 249.34776306152344 234.8245086669922 215.42103576660156 184.94500732421875 159.47958374023438 144.8468780517578 138.10421752929688 145.07081604003906 161.19329833984375 182.39039611816406 210.83880615234375 212.55154418945312 203.6265106201172 218.37826538085938 233.83203125 253.4124755859375 263.6507873535156 254.26168823242188 238.7550506591797 223.57713317871094 206.46189880371094 190.4712677001953 166.98741149902344 174.56727600097656 201.87472534179688 198.71522521972656 182.6170654296875 179.1627960205078 181.91578674316406 217.1372528076172 247.55271911621094 254.0766143798828 261.29351806640625 255.8181915283203 240.65505981445312 226.8540802001953 236.22122192382812 254.6647491455078 255.0836181640625 253.93479919433594 244.92323303222656 233.41940307617188 211.58639526367188 206.69496154785156
245.1468505859375 225.51934814453125 213.63758850097656 219.17396545410156 243.74595642089844 249.19671630859375 252.2569580078125 257.4441833496094 266.9734191894531 281.2771301269531 317.080810546875 362.66314697265625 363.6533203125 325.1197814941406 298.3271789550781 282.0744323730469 283.87176513671875 293.1842041015625 313.3211669921875 334.3161315917969 338.23565673828125 354.8526916503906 360.1581726074219 371.0806884765625 394.25799560546875 405.3722839355469 383.8946838378906 376.4763488769531 356.2777099609375 327.7826232910156 279.7281494140625 248.7814178466797 239.8089599609375 240.68600463867188 245.9482879638672 267.3075866699219 297.95697021484375 328.9039001464844 336.135009765625 317.1461486816406 313.4700927734375 324.4837951660156 323.0290832519531 304.755126953125 278.7318420410156 247.5039825439453 212.12786865234375 196.88450622558594 184.13180541992188 171.43470764160156 159.32553100585938 155.14031982421875 161.64193725585938 163.24893188476562 159.2069854736328 160.60313415527344 173.54107666015625 196.40267944335938 218.513427734375 230.823974609375 227.53372192382812 216.2639923095703 226.71243286132812 249.82794189453125 255.01370239257812 241.16131591796875 233.9798126220703 228.18429565429688 187.1385498046875 163.88682556152344 155.5000457763672 128.0232391357422 111.88565063476562 111.5623779296875 118.33609771728516 148.48419189453125 167.37242126464844 161.2954864501953 163.45440673828125 191.38853454589844 203.56539916992188 186.2484130859375 160.91787719726562 131.61074829101562 122.75643157958984 133.80601501464844 153.22964477539062 185.5723114013672 192.84959411621094 168.15357971191406 135.75701904296875 116.64215850830078 118.6982421875 124.94520568847656 134.1990509033203 143.27169799804688 146.0596923828125 152.35543823242188 162.0074005126953 186.561767578125 243.68894958496094 259.33477783203125 247.8920440673828 226.33099365234375 205.18914794921875 195.81105041503906 186.6147918701172 194.5825958251953 197.23617553710938 200.64239501953125 203.30638122558594 207.86837768554688 208.45355224609375 214.71775817871094 219.65927124023438 232.71646118164062 237.2373809814453 249.5919952392578 265.8343505859375 257.0653381347656 243.26486206054688 229.5679473876953 205.34280395507812 183.51393127441406 169.0583953857422 154.89149475097656 137.84999084472656 146.5616455078125 174.93185424804688 210.11032104492188 213.10523986816406 198.9784393310547 200.69667053222656 230.08541870117188 245.1343994140625 253.63055419921875 258.265380859375 252.74720764160156 236.8594512939453 222.69268798828125 196.63653564453125 169.6575164794922 154.56590270996094 160.82870483398438 180.38621520996094 174.79563903808594 166.09483337402344 184.3631134033203 213.55702209472656 236.81031799316406 259.232421875 261.3201904296875 262.8802185058594 252.56036376953125 228.44183349609375 216.53387451171875 223.49420166015625 237.2410125732422 248.8884735107422 244.1973876953125 230.2365264892578 233.8089599609375 219.4694366455078 201.26559448242188
211.47607421875 206.5786590576172 197.53536987304688 195.2486114501953 200.44696044921875 209.3594970703125 216.81201171875 229.2465057373047 253.29376220703125 282.8227233886719 314.1896667480469 337.28924560546875 345.8173522949219 339.26287841796875 334.1325378417969 305.068359375 275.53778076171875 274.81280517578125 286.8643798828125 310.25689697265625 333.51544189453125 350.4491271972656 335.7585754394531 335.54443359375 367.4934387207031 395.5894775390625 406.08245849609375 390.5316162109375 350.0780334472656 318.6093444824219 290.8205261230469 273.7012939453125 257.4263000488281 238.61874389648438 235.8475341796875 249.46734619140625 293.4684143066406 331.6676940917969 339.387939453125 337.5780029296875 344.8843688964844 344.73345947265625 350.1278381347656 332.4872741699219 277.7586364746094 238.9122772216797 224.90159606933594 229.09713745117188 223.0947265625 210.30909729003906 193.17405700683594 174.5021514892578 161.9398956298828 153.89344787597656 154.77963256835938 153.85482788085938 168.52418518066406 177.27381896972656 195.0060272216797 208.31668090820312 203.0141143798828 202.15283203125 222.76504516601562 243.61976623535156 237.77098083496094 227.33731079101562 229.6272735595703 210.56532287597656 166.6104278564453 133.67630004882812 124.87385559082031 116.51228332519531 124.85562896728516 126.70030212402344 113.55481719970703 117.52289581298828 142.54000854492188 150.5041961669922 151.5308380126953 163.79652404785156 177.9625701904297 164.95045471191406 134.2732391357422 104.02040100097656 110.29959106445312 131.2715301513672 164.309814453125 193.98110961914062 194.06805419921875 171.97552490234375 145.6554718017578 120.44029998779297 129.10279846191406 150.2064666748047 167.79701232910156 174.5149688720703 168.1249542236328 177.43397521972656 192.09779357910156 212.31642150878906 260.7221374511719 268.5140686035156 236.57525634765625 211.17161560058594 195.15428161621094 180.9224853515625 191.43020629882812 217.854736328125 213.64320373535156 192.4040985107422 175.5343780517578 185.00489807128906 192.3827362060547 194.84466552734375 201.9545440673828 209.20924377441406 226.4250946044922 245.3212890625 255.96681213378906 254.06927490234375 236.66360473632812 228.76658630371094 210.5812530517578 192.43162536621094 180.3148193359375 154.99502563476562 136.63217163085938 137.59576416015625 168.2351531982422 204.2044677734375 199.50160217285156 189.35977172851562 208.2377471923828 252.7313690185547 263.1408996582031 261.9427185058594 257.818603515625 249.2532196044922 241.484375 222.14547729492188 192.32505798339844 160.19378662109375 152.7095947265625 153.6887664794922 151.27621459960938 151.53736877441406 164.2880096435547 191.7198944091797 225.31263732910156 231.2886505126953 240.5035858154297 244.91346740722656 243.94036865234375 241.63609313964844 225.24948120117188 210.42315673828125 210.68272399902344 222.0327911376953 236.06871032714844 231.79054260253906 214.18399047851562 216.85499572753906 216.44635009765625 198.98573303222656
228.4439697265625 236.20986938476562 230.65208435058594 207.43714904785156 200.9718475341797 200.67501831054688 189.1410369873047 214.78866577148438 251.16099548339844 282.6773681640625 304.17706298828125 308.9562072753906 318.40850830078125 327.40728759765625 334.17816162109375 309.51800537109375 277.3284912109375 267.87579345703125 275.1960754394531 325.3782653808594 354.2872619628906 363.7311096191406 343.3809509277344 316.8158874511719 327.56256103515625 357.15521240234375 380.2442626953125 375.2648620605469 357.5739440917969 335.5422668457031 331.71221923828125 325.1290283203125 301.05670166015625 266.9360046386719 238.7655487060547 231.9842071533203 261.5686950683594 296.21478271484375 310.22906494140625 313.4639587402344 323.0176696777344 322.3387145996094 334.46087646484375 336.98858642578125 289.5185546875 261.4487609863281 265.8935546875 273.4583435058594 260.5751953125 247.20274353027344 230.65451049804688 204.09222412109375 190.10403442382812 181.79942321777344 170.08786010742188 159.1447296142578 149.80520629882812 153.36268615722656 177.42034912109375 195.48464965820312 200.37741088867188 214.628173828125 229.14010620117188 238.1774139404297 215.05105590820312 200.81072998046875 205.69615173339844 179.28952026367188 141.86041259765625 124.31401824951172 124.96029663085938 137.73324584960938 158.42489624023438 157.56863403320312 141.409912109375 120.41169738769531 110.70142364501953 137.1367950439453 155.56112670898438 160.29185485839844 154.3157196044922 136.79763793945312 118.1849594116211 104.34730529785156 118.325439453125 143.8389892578125 169.23544311523438 183.8927764892578 185.45108032226562 162.41578674316406 126.96607208251953 117.63999938964844 136.22769165039062 166.472412109375 190.98728942871094 198.80166625976562 196.04173278808594 205.6277618408203 226.71632385253906 241.33241271972656 261.3689270019531 257.577392578125 228.20521545410156 199.94180297851562 178.1808319091797 173.48875427246094 196.22972106933594 210.61573791503906 195.89517211914062 182.66534423828125 204.3490447998047 227.35101318359375 226.63851928710938 224.49586486816406 225.76516723632812 223.6736602783203 227.90744018554688 224.03497314453125 225.63758850097656 234.2715606689453 229.54490661621094 234.3184051513672 211.19708251953125 182.07989501953125 174.6508026123047 153.72933959960938 135.33331298828125 136.89942932128906 152.52647399902344 164.59161376953125 172.00411987304688 188.62767028808594 217.49819946289062 257.2541198730469 260.5672607421875 256.6531066894531 252.683349609375 240.85205078125 237.4173583984375 234.33804321289062 211.50502014160156 185.19676208496094 162.180908203125 146.8767852783203 148.8272247314453 161.7703857421875 184.7744598388672 209.00140380859375 226.1387481689453 217.5681915283203 218.25003051757812 226.3798370361328 229.25186157226562 234.2861328125 229.09945678710938 208.94259643554688 207.51695251464844 215.00833129882812 216.2204132080078 217.71603393554688 207.91896057128906 199.36746215820312 211.9378204345703 207.96385192871094
256.96697998046875 268.1683044433594 275.0364685058594 257.0633544921875 245.8896942138672 225.32699584960938 192.38241577148438 188.88702392578125 244.6057586669922 274.3871765136719 282.7007751464844 294.1295471191406 311.26806640625 317.096435546875 322.1767578125 294.5514221191406 263.4028015136719 258.27471923828125 268.2413330078125 308.9381408691406 352.4126281738281 358.09552001953125 340.3977355957031 319.3078918457031 306.6621398925781 324.22607421875 344.50445556640625 351.19183349609375 340.6289978027344 321.1881103515625 329.11590576171875 340.0213317871094 322.84674072265625 281.0247497558594 238.43728637695312 216.96160888671875 224.55284118652344 246.21591186523438 261.6395568847656 268.6383361816406 270.4676818847656 284.7819519042969 318.4688415527344 323.9031982421875 313.4136962890625 295.0420837402344 287.0799865722656 276.23895263671875 256.6477966308594 243.2864227294922 228.8026123046875 209.98709106445312 201.93431091308594 196.70042419433594 180.63717651367188 170.5723876953125 159.90872192382812 149.23648071289062 158.62413024902344 176.36534118652344 195.38319396972656 204.0005340576172 205.58885192871094 203.64462280273438 185.507080078125 174.98123168945312 179.30455017089844 168.6737518310547 138.71820068359375 121.42153930664062 132.80438232421875 164.88377380371094 189.62234497070312 182.93458557128906 170.90127563476562 144.33946228027344 113.44558715820312 116.78097534179688 153.9342498779297 150.6456298828125 129.67538452148438 114.26910400390625 103.63460540771484 106.28761291503906 134.58714294433594 150.5642852783203 164.53677368164062 169.3581085205078 168.21078491210938 149.08302307128906 103.28962707519531 116.27482604980469 125.3216323852539 141.8279266357422 163.49049377441406 177.76072692871094 191.36936950683594 217.38328552246094 243.2367706298828 257.4890441894531 248.0233612060547 231.613525390625 217.86099243164062 200.67041015625 179.91665649414062 181.98583984375 199.42535400390625 202.31361389160156 186.89935302734375 186.91122436523438 210.5149383544922 222.64376831054688 234.35455322265625 244.1843719482422 232.91993713378906 212.11888122558594 194.99130249023438 185.3271942138672 184.65081787109375 197.1258087158203 212.8402099609375 231.77374267578125 210.6441650390625 177.13148498535156 159.44342041015625 150.10195922851562 134.9466552734375 142.32931518554688 151.62110900878906 160.33718872070312 186.60897827148438 209.00416564941406 232.1806640625 240.6844482421875 247.56224060058594 252.38868713378906 250.74134826660156 237.2406463623047 226.20120239257812 225.71722412109375 216.7591094970703 196.97808837890625 160.17604064941406 140.03912353515625 158.64309692382812 183.94427490234375 191.25625610351562 197.92996215820312 205.71163940429688 204.83518981933594 216.70294189453125 223.81509399414062 220.8233642578125 219.8072509765625 219.06752014160156 204.34556579589844 198.7740936279297 205.8555450439453 209.9190216064453 211.7640838623047 203.08619689941406 196.4521484375 210.06060791015625 221.32847595214844
288.32366943359375 291.4658508300781 287.22119140625 267.3009033203125 244.46449279785156 217.32798767089844 188.55682373046875 202.34864807128906 234.3690948486328 252.35020446777344 271.00146484375 294.3609924316406 301.63934326171875 313.5451965332031 324.52911376953125 305.47723388671875 267.9689636230469 252.22079467773438 252.643310546875 283.12091064453125 323.85968017578125 305.6183776855469 299.553955078125 303.76776123046875 294.8808898925781 294.3897705078125 301.8056640625 298.4170837402344 292.7840881347656 285.4836120605469 292.2973327636719 306.3746643066406 301.4456481933594 260.5970764160156 227.7257843017578 206.29600524902344 200.26202392578125 201.61431884765625 212.51162719726562 223.37136840820312 251.49124145507812 277.4825744628906 299.1944580078125 297.50140380859375 303.706298828125 295.4842529296875 276.47601318359375 260.95068359375 253.71420288085938 250.57415771484375 247.8007354736328 234.3052978515625 224.5134735107422 218.0428924560547 208.91012573242188 195.3229522705078 190.97508239746094 170.62059020996094 146.01495361328125 148.0023651123047 150.15719604492188 135.3882598876953 149.46519470214844 155.41336059570312 153.48379516601562 153.15293884277344 155.4940948486328 148.9273681640625 139.62152099609375 129.31651306152344 131.205810546875 177.29443359375 201.67953491210938 197.51870727539062 187.36790466308594 163.77488708496094 130.6883087158203 104.34265899658203 130.07171630859375 134.45108032226562 118.67444610595703 103.67153930664062 93.9368667602539 104.7934341430664 122.40863800048828 134.31781005859375 150.67446899414062 156.26507568359375 152.94337463378906 134.1201629638672 104.22940826416016 110.75533294677734 121.33969116210938 132.34231567382812 143.94699096679688 156.9468536376953 173.7714080810547 204.34091186523438 242.219970703125 253.67103576660156 236.03407287597656 221.1137237548828 217.57334899902344 204.00692749023438 183.15931701660156 177.6768798828125 194.41847229003906 195.16079711914062 181.57041931152344 178.10739135742188 189.1810760498047 198.0623016357422 214.73158264160156 233.48953247070312 211.95350646972656 174.05409240722656 170.8993377685547 186.04087829589844 199.69415283203125 206.09783935546875 220.1947479248047 221.9725341796875 202.66734313964844 171.09426879882812 143.54820251464844 134.14344787597656 141.89544677734375 165.13304138183594 186.46221923828125 198.34730529785156 216.33416748046875 224.1070098876953 233.36376953125 223.51548767089844 220.73643493652344 244.9764862060547 247.7318115234375 235.44931030273438 225.46450805664062 206.54730224609375 176.3209228515625 162.61959838867188 143.99716186523438 130.78097534179688 130.2552490234375 149.33021545410156 168.79530334472656 183.7553253173828 194.53196716308594 201.67771911621094 213.48541259765625 218.2693634033203 211.732421875 209.1812744140625 217.7462921142578 206.93267822265625 196.017822265625 201.9597625732422 210.41290283203125 210.32899475097656 188.09764099121094 178.6888885498047 194.46347045898438 211.2697296142578
303.9248046875 288.00787353515625 267.94561767578125 240.1179656982422 220.46636962890625 199.97686767578125 186.9390411376953 200.78237915039062 219.64013671875 236.98046875 265.7625732421875 290.2492370605469 295.9698486328125 306.1625061035156 322.0953369140625 323.62176513671875 283.8267517089844 255.25721740722656 246.83966064453125 270.2984313964844 291.1838073730469 280.8942565917969 284.65460205078125 308.6056823730469 311.70501708984375 288.1059875488281 269.8943176269531 260.55657958984375 252.04913330078125 244.68630981445312 239.37411499023438 239.3601837158203 238.8413543701172 218.2921600341797 214.46221923828125 205.52110290527344 194.6168975830078 191.89852905273438 185.1602783203125 195.3487548828125 244.47695922851562 266.8022155761719 265.759521484375 268.8289489746094 283.59771728515625 296.7107238769531 294.7903137207031 272.6988525390625 265.93524169921875 272.3244323730469 272.4451599121094 260.0198669433594 255.31240844726562 254.36558532714844 242.14340209960938 221.05616760253906 222.1502685546875 212.94639587402344 173.3604278564453 147.40565490722656 145.55979919433594 140.24009704589844 136.3662872314453 134.323486328125 132.76303100585938 142.20802307128906 144.97805786132812 132.8534698486328 132.07049560546875 135.02024841308594 141.6053009033203 181.07496643066406 207.97142028808594 213.1856689453125 205.1185760498047 179.46876525878906 142.53526306152344 107.19942474365234 105.44401550292969 103.37712097167969 105.68482208251953 102.97828674316406 94.37551879882812 104.31787872314453 113.27713775634766 126.94638061523438 138.4055938720703 134.17062377929688 124.0253677368164 110.31946563720703 98.63355255126953 116.58796691894531 144.08302307128906 167.55909729003906 177.780029296875 182.18368530273438 193.57176208496094 208.3699493408203 233.7149658203125 253.08126831054688 246.33245849609375 235.47122192382812 221.94317626953125 201.99099731445312 179.04360961914062 164.1002960205078 170.91012573242188 164.20372009277344 157.4351043701172 156.20974731445312 159.63995361328125 169.6122589111328 179.56448364257812 194.65887451171875 179.6763458251953 171.20228576660156 193.71714782714844 212.2290802001953 219.66677856445312 222.85052490234375 216.17343139648438 202.0911102294922 179.7957305908203 149.77589416503906 127.70987701416016 126.23213195800781 143.39906311035156 185.8390350341797 202.8394775390625 192.16024780273438 184.03404235839844 189.0907440185547 200.9086456298828 201.992431640625 205.8964385986328 234.04319763183594 242.4651336669922 231.97547912597656 223.47325134277344 206.08277893066406 179.1731719970703 168.7799072265625 158.34544372558594 141.1908416748047 130.20452880859375 143.85560607910156 172.1043243408203 182.99073791503906 187.48146057128906 192.33905029296875 195.31375122070312 197.58445739746094 200.1514129638672 195.9066619873047 204.4794464111328 203.83067321777344 193.65684509277344 199.06858825683594 208.30462646484375 206.64724731445312 185.38140869140625 164.8240203857422 173.06399536132812 195.96060180664062
288.1549987792969 275.98443603515625 253.60882568359375 225.94515991210938 209.13027954101562 196.33444213867188 177.56353759765625 191.77735900878906 205.88880920410156 229.3282012939453 249.28968811035156 275.3140869140625 284.74420166015625 281.0914001464844 298.1901550292969 320.80242919921875 295.15753173828125 261.666748046875 242.0897979736328 246.3842010498047 255.39065551757812 259.83349609375 272.94915771484375 301.4795227050781 314.3427429199219 299.24615478515625 284.0736083984375 282.6692199707031 282.1753234863281 275.7711181640625 259.7809753417969 235.32833862304688 223.61087036132812 222.5371856689453 234.96206665039062 235.44009399414062 228.2775421142578 213.41046142578125 185.7946014404297 175.1396026611328 216.56320190429688 246.58644104003906 237.82240295410156 242.63197326660156 261.4256286621094 286.51666259765625 301.654541015625 287.57366943359375 280.3845520019531 284.3904113769531 283.1084899902344 269.87139892578125 270.0228576660156 269.7060852050781 254.59469604492188 240.79745483398438 244.23501586914062 243.77366638183594 203.63528442382812 163.31968688964844 143.80564880371094 146.25039672851562 151.600341796875 148.22398376464844 133.42005920410156 136.69932556152344 136.71495056152344 125.22782897949219 121.95835876464844 121.84652709960938 150.2960968017578 191.99554443359375 216.68502807617188 222.41981506347656 213.43128967285156 182.66885375976562 144.7890167236328 116.94017028808594 98.77705383300781 94.63664245605469 91.44355010986328 89.42945098876953 95.69830322265625 109.40457153320312 119.41985321044922 129.68038940429688 126.77293395996094 108.37450408935547 91.97940826416016 90.57359313964844 96.29387664794922 117.4502944946289 165.8806915283203 200.0955352783203 209.96546936035156 208.74522399902344 209.33367919921875 205.6456298828125 213.60736083984375 242.00619506835938 253.4729766845703 247.34844970703125 217.46429443359375 190.51815795898438 177.81011962890625 172.36134338378906 164.65919494628906 160.42227172851562 168.19606018066406 165.77252197265625 156.58206176757812 150.5836181640625 153.998291015625 158.7256317138672 154.95993041992188 169.90716552734375 198.372802734375 209.5936737060547 208.3820343017578 203.1634063720703 188.48570251464844 175.218017578125 161.28411865234375 126.16914367675781 126.20416259765625 135.4249267578125 154.90341186523438 187.1318359375 195.3780975341797 178.46926879882812 174.5438690185547 183.81175231933594 191.44821166992188 199.45298767089844 204.70687866210938 215.57716369628906 222.02134704589844 230.60525512695312 228.33810424804688 211.4785919189453 188.5387420654297 175.89694213867188 158.56613159179688 139.63523864746094 130.17408752441406 150.0474395751953 174.74365234375 168.9982147216797 173.3661346435547 177.35052490234375 171.47113037109375 176.3654327392578 188.92173767089844 191.4888458251953 190.92596435546875 187.66163635253906 181.7710418701172 186.7821044921875 197.58914184570312 200.3707733154297 192.8599395751953 162.95211791992188 154.49581909179688 170.0211944580078
261.7603454589844 265.3237609863281 257.0467224121094 242.21812438964844 220.60202026367188 202.00274658203125 178.9342041015625 177.0547332763672 189.77212524414062 215.56594848632812 231.95709228515625 256.6346740722656 264.7008972167969 246.93980407714844 269.1988830566406 295.4068908691406 286.6126403808594 266.5238952636719 241.96124267578125 227.98313903808594 221.8232879638672 231.25393676757812 256.6209411621094 290.08599853515625 294.3467102050781 286.7205810546875 290.7217102050781 307.7877502441406 330.7775573730469 336.02386474609375 315.2731018066406 278.0523986816406 261.0489501953125 267.5337219238281 272.1798095703125 265.4161682128906 250.7801971435547 226.04852294921875 187.67892456054688 161.210693359375 182.10443115234375 212.3789825439453 207.73451232910156 216.18621826171875 239.1218719482422 264.9294128417969 290.6505126953125 302.0175476074219 302.48193359375 306.4352111816406 303.7312927246094 286.4121398925781 279.0513610839844 277.56683349609375 264.7552185058594 258.6111145019531 253.69186401367188 240.22242736816406 213.96278381347656 184.2916259765625 170.08792114257812 168.99685668945312 173.28184509277344 158.52914428710938 135.82557678222656 126.74089813232422 125.79500579833984 128.5888214111328 125.71095275878906 129.89390563964844 161.39170837402344 211.78366088867188 228.29931640625 225.3426513671875 212.51576232910156 186.35101318359375 161.72085571289062 137.5003204345703 118.85424041748047 94.59136199951172 89.2327651977539 89.69921112060547 90.05268096923828 102.134765625 112.16777801513672 119.73375701904297 105.58558654785156 87.25855255126953 86.77461242675781 103.07311248779297 117.64451599121094 135.21739196777344 176.7517547607422 202.53408813476562 206.72903442382812 206.9175567626953 204.57260131835938 190.17718505859375 191.35498046875 213.59613037109375 240.16036987304688 253.9534912109375 234.94271850585938 215.8000946044922 207.72296142578125 196.7985382080078 189.4750213623047 185.90147399902344 188.67584228515625 181.6759490966797 174.02182006835938 154.605224609375 146.84532165527344 142.82632446289062 148.31736755371094 164.11570739746094 183.09243774414062 191.45516967773438 200.62820434570312 181.26380920410156 154.78854370117188 145.0493927001953 143.08517456054688 122.82666015625 131.11399841308594 143.36143493652344 164.40504455566406 171.8287811279297 170.18557739257812 174.47218322753906 188.271484375 209.5131072998047 208.0063934326172 210.43931579589844 211.71401977539062 215.89218139648438 213.32284545898438 219.18287658691406 219.7582244873047 212.67752075195312 190.07069396972656 168.23048400878906 138.70294189453125 128.94468688964844 127.78489685058594 145.48509216308594 169.7438507080078 159.00982666015625 160.07928466796875 157.8365478515625 156.4312286376953 176.6579132080078 198.4033660888672 196.91592407226562 183.63841247558594 172.4864501953125 169.79527282714844 179.84536743164062 185.0959930419922 187.81349182128906 187.5779571533203 163.5624542236328 149.32154846191406 149.622802734375
237.01512145996094 240.0625 235.28990173339844 230.9807586669922 217.51943969726562 192.4814910888672 175.3291778564453 184.68531799316406 205.971923828125 220.40858459472656 236.19129943847656 255.925048828125 250.41600036621094 233.91082763671875 246.3568572998047 266.0398254394531 265.4404602050781 267.67962646484375 259.8952941894531 247.25198364257812 233.4634552001953 222.54888916015625 242.01702880859375 272.77862548828125 271.91339111328125 271.9174499511719 274.19708251953125 279.7602233886719 313.6773681640625 322.7246398925781 296.1143798828125 283.4360046386719 289.4576721191406 297.80206298828125 291.43798828125 279.5654602050781 262.0272521972656 229.01870727539062 190.0171356201172 163.5588836669922 162.8384246826172 182.77200317382812 203.3426971435547 224.0760955810547 247.94114685058594 261.7976989746094 276.21331787109375 291.8805236816406 305.07232666015625 306.9351501464844 298.45672607421875 282.2065734863281 262.21112060546875 243.17576599121094 232.5800018310547 228.08872985839844 222.81793212890625 215.0731964111328 210.45498657226562 195.77511596679688 188.15232849121094 182.92410278320312 177.6109161376953 166.6904754638672 148.04119873046875 135.42221069335938 135.9024200439453 151.9110107421875 145.27557373046875 147.81048583984375 195.1563720703125 235.71470642089844 227.31179809570312 215.5291748046875 204.76953125 182.1365509033203 166.45578002929688 145.6273956298828 127.62926483154297 106.4284896850586 91.34978485107422 94.00336456298828 87.31640625 88.92125701904297 95.24653625488281 99.4452896118164 87.17635345458984 94.66789245605469 115.34996795654297 141.78152465820312 154.50192260742188 168.7810516357422 186.61459350585938 196.1379852294922 193.21884155273438 195.1511688232422 194.3212432861328 181.51712036132812 196.23284912109375 204.74896240234375 220.27227783203125 251.39703369140625 257.03759765625 242.1651153564453 225.4004364013672 210.76290893554688 211.15553283691406 206.70594787597656 201.2270965576172 205.34378051757812 202.8097381591797 172.2284393310547 151.92681884765625 147.94309997558594 143.66818237304688 148.60430908203125 160.77626037597656 173.76316833496094 176.84852600097656 152.8909454345703 127.23474884033203 119.7712173461914 116.76158905029297 122.04067993164062 142.37518310546875 158.57916259765625 176.95309448242188 170.4852294921875 167.26544189453125 181.1365509033203 201.8733367919922 211.84190368652344 204.92071533203125 197.3118133544922 209.27444458007812 216.41778564453125 208.4337158203125 208.29116821289062 212.0426483154297 209.97857666015625 197.83238220214844 176.29019165039062 152.0723419189453 137.4786376953125 128.46075439453125 139.0297088623047 155.18255615234375 145.26844787597656 136.53521728515625 135.05564880371094 155.2230224609375 185.20555114746094 203.0715789794922 202.588134765625 189.84872436523438 167.7433624267578 158.47052001953125 161.51461791992188 176.44422912597656 188.15480041503906 185.33270263671875 166.9807891845703 148.0852508544922 151.85801696777344
225.82968139648438 212.7235107421875 208.89369201660156 206.4672088623047 199.7723388671875 182.923583984375 174.3955841064453 185.65304565429688 203.42408752441406 227.06224060058594 246.37924194335938 266.9360656738281 258.62786865234375 229.48944091796875 214.1391143798828 223.01211547851562 228.31507873535156 236.35780334472656 249.76756286621094 258.4995422363281 254.7759246826172 223.6625213623047 216.02658081054688 227.27256774902344 233.79295349121094 246.24295043945312 246.7036590576172 249.2888946533203 272.4713134765625 288.0870361328125 270.6368408203125 266.97491455078125 279.2544250488281 284.1130065917969 272.2947082519531 271.66876220703125 254.75479125976562 223.9780731201172 198.6327667236328 176.4230499267578 154.82191467285156 157.4842987060547 200.93421936035156 234.0632781982422 247.51605224609375 244.8810272216797 240.26219177246094 258.5357666015625 263.1107177734375 259.3028259277344 254.28269958496094 248.21778869628906 223.5395965576172 199.3497772216797 189.64312744140625 187.01402282714844 190.84600830078125 191.9738006591797 194.94491577148438 191.73269653320312 185.3587646484375 177.2147979736328 174.72999572753906 183.16282653808594 184.51011657714844 169.0792236328125 158.91259765625 182.97445678710938 176.66917419433594 171.52731323242188 214.3406524658203 239.7577667236328 217.0882568359375 197.71307373046875 181.07040405273438 165.18270874023438 154.5287628173828 143.45217895507812 140.30535888671875 125.5743408203125 107.88807678222656 104.13286590576172 84.54265594482422 83.38856506347656 86.69409942626953 87.50189208984375 90.9308853149414 115.1505355834961 148.3738555908203 176.88323974609375 185.9990692138672 190.13534545898438 186.72865295410156 189.31527709960938 185.75706481933594 180.59716796875 173.59950256347656 172.8179168701172 189.56236267089844 195.95330810546875 211.89149475097656 249.13816833496094 257.0005798339844 243.84185791015625 227.24063110351562 223.7352752685547 228.9778594970703 229.337646484375 221.7045135498047 212.83494567871094 194.5437469482422 174.25018310546875 167.43101501464844 162.5904083251953 144.8275604248047 152.2688751220703 152.480712890625 158.2957763671875 151.08953857421875 131.61776733398438 119.31040954589844 115.63397216796875 112.35518646240234 122.570556640625 153.7107391357422 177.64083862304688 184.28347778320312 169.37962341308594 170.4925079345703 191.85757446289062 209.79812622070312 200.8977508544922 175.65020751953125 169.28079223632812 193.0982208251953 214.07778930664062 208.38780212402344 211.69017028808594 216.26148986816406 210.18829345703125 200.8151092529297 171.585205078125 146.6664276123047 132.446044921875 123.60647583007812 132.5113067626953 136.75558471679688 124.66494750976562 117.26509857177734 138.71702575683594 172.96932983398438 186.5757293701172 195.10006713867188 193.3067626953125 190.03013610839844 163.87823486328125 158.10092163085938 165.8939208984375 185.91026306152344 188.58767700195312 182.8829345703125 164.943359375 148.9586639404297 153.95089721679688
223.95758056640625 198.09906005859375 190.8523712158203 194.12132263183594 193.14462280273438 184.1614227294922 171.84503173828125 175.71450805664062 183.2401580810547 211.07489013671875 229.2642364501953 252.67166137695312 256.3306884765625 236.7897491455078 210.87648010253906 198.18173217773438 202.2207489013672 214.97976684570312 231.88694763183594 249.1138916015625 261.1477355957031 233.47007751464844 207.7774200439453 199.79515075683594 194.4573516845703 200.84268188476562 214.7412109375 214.5865020751953 222.01756286621094 250.88504028320312 272.8311462402344 259.0539855957031 255.8128662109375 258.9748840332031 249.60702514648438 249.49168395996094 241.85638427734375 237.51800537109375 234.68173217773438 210.9421844482422 181.33499145507812 149.70716857910156 172.47589111328125 219.8733673095703 232.29701232910156 225.93580627441406 234.20657348632812 247.3447723388672 235.34033203125 221.16148376464844 228.47132873535156 231.519287109375 200.6521759033203 168.49537658691406 162.7789306640625 162.37353515625 160.90719604492188 171.8921356201172 196.56874084472656 202.57730102539062 200.59825134277344 193.30477905273438 195.15347290039062 202.68853759765625 205.99887084960938 191.23414611816406 185.90072631835938 215.75526428222656 204.79502868652344 197.83175659179688 224.78355407714844 235.09010314941406 214.10194396972656 201.37655639648438 187.6095428466797 178.32461547851562 172.56637573242188 170.29898071289062 170.27902221679688 163.64744567871094 145.2247772216797 115.18093872070312 85.59412384033203 79.4253921508789 83.21880340576172 85.81806182861328 104.30036926269531 141.79660034179688 174.0198516845703 190.1703643798828 200.15025329589844 191.94757080078125 180.54583740234375 187.62368774414062 179.18951416015625 163.79090881347656 158.69058227539062 172.4237060546875 180.21617126464844 188.89747619628906 209.9581756591797 235.13890075683594 242.89418029785156 242.927490234375 239.81130981445312 242.14610290527344 240.471435546875 242.08079528808594 229.59352111816406 205.160888671875 192.48098754882812 190.77960205078125 184.83827209472656 165.32530212402344 141.64694213867188 148.1727752685547 150.74989318847656 143.4468231201172 115.78186798095703 121.86136627197266 117.23902130126953 122.58326721191406 118.09388732910156 117.7360610961914 144.94625854492188 170.66432189941406 177.19281005859375 162.8553009033203 172.75308227539062 189.60696411132812 200.17774963378906 195.74270629882812 168.9617156982422 157.13897705078125 170.71258544921875 180.2387237548828 187.5241241455078 207.65835571289062 210.36190795898438 204.08822631835938 203.2535858154297 175.14370727539062 152.5583953857422 128.92665100097656 119.91241455078125 118.80146026611328 112.3034439086914 116.3329086303711 131.14817810058594 156.24407958984375 176.23265075683594 181.16680908203125 182.37448120117188 187.4369354248047 167.3167724609375 145.20384216308594 154.9874725341797 173.31272888183594 182.42543029785156 183.80274963378906 178.92222595214844 168.89569091796875 151.06065368652344 143.2850341796875
231.57321166992188 207.77493286132812 186.96604919433594 187.4673614501953 201.08531188964844 196.6464385986328 174.10789489746094 169.5480194091797 188.60353088378906 218.12765502929688 228.7074737548828 231.94297790527344 227.32618713378906 223.32537841796875 213.2311553955078 191.63174438476562 190.5146942138672 209.8919219970703 223.58460998535156 238.25711059570312 264.1797180175781 266.02142333984375 241.56640625 226.21958923339844 208.86338806152344 193.53221130371094 189.85263061523438 187.00180053710938 168.68084716796875 201.63197326660156 255.8120574951172 259.0504150390625 249.17710876464844 247.9418182373047 230.8502197265625 232.61141967773438 227.23992919921875 247.3892364501953 261.8818359375 242.82093811035156 202.6781005859375 159.97225952148438 156.13262939453125 199.9663543701172 220.8009033203125 211.91441345214844 230.13182067871094 243.35768127441406 219.46144104003906 187.6890411376953 188.25411987304688 194.43197631835938 187.4547119140625 164.78558349609375 150.2019500732422 142.41873168945312 147.4788818359375 171.8791961669922 199.67349243164062 215.46726989746094 221.3931121826172 222.0568389892578 223.5059356689453 225.4888153076172 217.5804443359375 194.692138671875 197.0586700439453 227.11378479003906 221.17784118652344 213.03335571289062 229.4678192138672 228.89817810058594 216.4982452392578 210.30429077148438 198.55702209472656 188.73301696777344 186.8640899658203 180.2770233154297 169.23194885253906 166.79200744628906 147.281005859375 107.30465698242188 84.73745727539062 90.85640716552734 103.6270523071289 121.60799407958984 142.23643493652344 162.79913330078125 174.87686157226562 183.28375244140625 200.6372528076172 185.87962341308594 173.87863159179688 176.51441955566406 161.50790405273438 148.93173217773438 155.24209594726562 167.80226135253906 178.39486694335938 196.94784545898438 206.467529296875 211.76243591308594 217.90357971191406 226.47445678710938 222.82611083984375 222.26527404785156 227.26121520996094 237.64236450195312 230.7154998779297 211.9413604736328 201.34805297851562 190.95230102539062 167.63412475585938 141.96429443359375 139.47837829589844 133.86416625976562 118.66223907470703 121.31254577636719 117.10382080078125 114.98063659667969 111.9596176147461 114.14634704589844 117.47682189941406 125.72319793701172 129.07119750976562 144.32522583007812 159.56103515625 166.7243194580078 184.02114868164062 182.53952026367188 176.34934997558594 169.4889678955078 146.70835876464844 128.41366577148438 129.7870635986328 143.8583221435547 170.1362762451172 197.1344757080078 201.50534057617188 204.72393798828125 205.41798400878906 183.83453369140625 138.3343963623047 122.41016387939453 122.91817474365234 109.78095245361328 100.94957733154297 108.52074432373047 127.36143493652344 152.51255798339844 169.9562530517578 176.05702209472656 176.72686767578125 173.69700622558594 153.1901397705078 147.9886932373047 166.39422607421875 175.37559509277344 178.2784881591797 174.9360809326172 168.12432861328125 164.12452697753906 148.9620361328125 139.8047332763672
226.1498565673828 215.35081481933594 191.0820770263672 180.89163208007812 198.1117706298828 191.20802307128906 167.31954956054688 170.5774383544922 204.76194763183594 221.701416015625 201.54351806640625 185.7854766845703 187.93226623535156 197.8792724609375 200.9225311279297 186.0279083251953 187.02645874023438 199.51393127441406 215.0537872314453 227.6371612548828 251.54598999023438 273.43280029296875 269.6953125 257.2793273925781 235.12913513183594 215.97264099121094 213.21205139160156 203.5773468017578 177.5714874267578 172.54733276367188 215.93582153320312 237.52064514160156 232.9509735107422 221.24346923828125 203.64157104492188 208.5496368408203 211.63336181640625 235.18392944335938 258.58740234375 247.42515563964844 204.63800048828125 155.2969512939453 140.29754638671875 161.42694091796875 190.7393035888672 187.09959411621094 198.09130859375 221.26353454589844 199.53660583496094 164.36720275878906 150.376708984375 143.6527557373047 149.1415252685547 143.91961669921875 137.0365447998047 138.9000701904297 149.70343017578125 165.75851440429688 188.4345245361328 210.77476501464844 223.5882110595703 223.52410888671875 217.8063201904297 225.93569946289062 227.6238250732422 202.44906616210938 200.43533325195312 218.72430419921875 234.00367736816406 228.6320037841797 232.15289306640625 232.41281127929688 228.7798614501953 212.34922790527344 199.62033081054688 186.8088836669922 178.7835235595703 156.27870178222656 142.5292510986328 139.9207305908203 119.73224639892578 91.15814971923828 88.02478790283203 106.50859832763672 123.60230255126953 136.42210388183594 149.10267639160156 155.13836669921875 162.79315185546875 178.14340209960938 189.0594024658203 175.53775024414062 166.01760864257812 158.75791931152344 140.6167755126953 146.14468383789062 160.56700134277344 165.95680236816406 185.84922790527344 204.46237182617188 190.86788940429688 179.35415649414062 185.687744140625 193.34127807617188 190.162109375 187.88665771484375 201.63685607910156 221.6819610595703 231.12033081054688 226.13519287109375 207.88070678710938 176.80958557128906 148.76515197753906 129.43408203125 126.89933013916016 123.15055084228516 120.63758087158203 123.47587585449219 128.59417724609375 127.10826110839844 118.11699676513672 114.05060577392578 112.89379119873047 116.03250122070312 126.31307220458984 134.24143981933594 144.30001831054688 167.4014129638672 185.95147705078125 179.67347717285156 153.55508422851562 136.5540008544922 123.69844055175781 131.98533630371094 144.0040740966797 150.4005126953125 154.7877197265625 170.243896484375 180.81033325195312 193.6747589111328 199.3459014892578 188.84474182128906 153.81259155273438 140.935546875 126.91576385498047 107.4824447631836 103.94312286376953 108.5330810546875 145.75906372070312 167.65386962890625 167.50576782226562 175.2086181640625 176.41641235351562 171.7440185546875 153.6728515625 152.5928955078125 169.46334838867188 171.0029296875 176.24539184570312 175.23452758789062 164.24441528320312 158.05934143066406 145.00621032714844 132.5499267578125
190.40040588378906 201.42254638671875 190.05389404296875 175.49542236328125 180.91673278808594 172.3052215576172 161.42857360839844 172.8372039794922 191.99142456054688 182.88107299804688 155.02854919433594 142.7793426513672 145.87948608398438 165.67672729492188 168.7100067138672 166.9972686767578 182.99290466308594 191.26382446289062 203.2272186279297 215.30307006835938 229.57601928710938 250.79495239257812 257.1992492675781 256.2793273925781 247.46080017089844 238.38888549804688 236.50299072265625 223.24041748046875 192.60491943359375 173.0897674560547 194.7623748779297 199.99517822265625 205.113525390625 201.81307983398438 189.6083984375 183.41802978515625 188.56503295898438 207.482177734375 236.5218505859375 234.81893920898438 197.62579345703125 160.49317932128906 138.10333251953125 135.23414611816406 150.48048400878906 159.41749572753906 180.8066864013672 196.8611297607422 187.6169891357422 147.31492614746094 113.99098205566406 108.74089050292969 113.4434814453125 121.97968292236328 133.23118591308594 143.4904022216797 153.73989868164062 149.6067657470703 166.37351989746094 185.76437377929688 197.17010498046875 206.11907958984375 200.74066162109375 212.4722442626953 228.08883666992188 220.37234497070312 211.96371459960938 226.4375457763672 248.04432678222656 252.4101104736328 254.45114135742188 254.12420654296875 249.03335571289062 222.8769989013672 208.57171630859375 190.100830078125 164.184814453125 133.96920776367188 119.20623779296875 103.35159301757812 87.24860382080078 79.0483627319336 81.06046295166016 90.67166900634766 102.13262176513672 113.9227294921875 141.99827575683594 167.951904296875 176.38821411132812 186.5970916748047 183.73231506347656 171.5831756591797 157.6721954345703 138.5678253173828 128.04800415039062 154.3549041748047 177.759521484375 175.04913330078125 191.02810668945312 202.59072875976562 177.4965057373047 158.30099487304688 161.72410583496094 167.820068359375 186.50393676757812 204.0620880126953 205.48851013183594 203.9114990234375 225.52647399902344 232.693603515625 210.83262634277344 177.60032653808594 154.00918579101562 136.2080078125 128.54090881347656 131.8710174560547 143.5851593017578 152.76351928710938 145.72813415527344 144.54270935058594 135.37904357910156 127.19216918945312 121.4822998046875 115.84553527832031 136.76295471191406 140.397705078125 152.6573486328125 162.48097229003906 174.14572143554688 153.2781524658203 119.604248046875 115.60140991210938 117.09790802001953 123.11927032470703 136.83973693847656 149.0743865966797 156.96908569335938 170.0949249267578 171.8189697265625 174.41592407226562 177.96920776367188 168.70005798339844 162.4483642578125 146.6517333984375 119.93482208251953 103.23970794677734 96.95018768310547 113.85498809814453 151.66014099121094 167.36968994140625 166.95822143554688 177.54676818847656 183.9679718017578 166.79344177246094 148.8935546875 149.96878051757812 160.11451721191406 157.5054168701172 173.60606384277344 175.74325561523438 169.9324188232422 157.4733123779297 146.15142822265625 135.71214294433594
150.09226989746094 162.36422729492188 173.6823272705078 164.0608367919922 163.1619415283203 159.34483337402344 164.99368286132812 176.24636840820312 170.16693115234375 151.31661987304688 141.13853454589844 137.9597625732422 139.32272338867188 137.98028564453125 150.57449340820312 155.65101623535156 170.88465881347656 174.85093688964844 182.267578125 190.7185516357422 208.3577117919922 235.3163604736328 237.12423706054688 233.9256134033203 231.77630615234375 238.72740173339844 242.1452178955078 227.9794921875 198.78245544433594 172.4075927734375 176.4058380126953 180.10372924804688 193.00741577148438 184.04592895507812 173.96902465820312 180.81976318359375 207.22373962402344 222.89979553222656 232.35414123535156 227.17337036132812 202.8833770751953 179.11007690429688 160.43812561035156 140.28543090820312 126.46576690673828 124.26581573486328 145.43751525878906 167.3585968017578 171.68348693847656 138.88450622558594 110.51441192626953 113.27464294433594 110.8276138305664 107.47709655761719 123.97467041015625 138.15411376953125 155.6436004638672 144.0098876953125 143.0192413330078 153.59494018554688 175.9492950439453 195.3477020263672 189.73582458496094 194.82144165039062 205.6582794189453 220.71487426757812 239.55084228515625 254.06631469726562 256.1448669433594 250.80596923828125 254.65696716308594 255.4653778076172 243.43902587890625 228.5243377685547 211.29367065429688 186.8271026611328 159.91693115234375 130.4371337890625 113.46648406982422 108.09866333007812 104.16764068603516 84.21172332763672 72.61466217041016 77.56660461425781 88.55333709716797 120.61141204833984 164.02999877929688 176.26821899414062 167.44808959960938 166.683837890625 171.93087768554688 173.04318237304688 169.42526245117188 150.48655700683594 130.23281860351562 150.39498901367188 177.1077423095703 171.22076416015625 182.1688232421875 194.9751434326172 170.2359619140625 149.35513305664062 157.05972290039062 171.9073486328125 195.78587341308594 204.53829956054688 197.23626708984375 194.21578979492188 223.27645874023438 231.71246337890625 212.72793579101562 191.04400634765625 178.37185668945312 166.9340362548828 167.3962860107422 172.90777587890625 175.53616333007812 170.69790649414062 150.83168029785156 143.1940155029297 134.6731719970703 130.33218383789062 125.80310821533203 111.18464660644531 130.10476684570312 132.88955688476562 127.00977325439453 138.65606689453125 158.63101196289062 138.43325805664062 113.24596405029297 106.63320922851562 108.6811752319336 109.08975219726562 114.9339370727539 127.72148132324219 147.56442260742188 170.32334899902344 168.73219299316406 148.92684936523438 151.4128875732422 149.564697265625 151.9169921875 145.3278350830078 109.06746673583984 86.5685043334961 84.36109924316406 104.23505401611328 139.69802856445312 159.38870239257812 161.90805053710938 174.0453338623047 175.0637664794922 148.54837036132812 131.52574157714844 134.30722045898438 139.7079315185547 147.8390350341797 168.95437622070312 167.25912475585938 157.03414916992188 152.00331115722656 155.7230224609375 156.3905029296875
151.1121063232422 148.81915283203125 148.08908081054688 148.11717224121094 150.88172912597656 152.2140350341797 168.55697631835938 170.11270141601562 152.13369750976562 142.54847717285156 153.4951171875 157.06210327148438 146.55616760253906 137.7026824951172 140.78346252441406 148.79576110839844 155.70387268066406 158.69728088378906 167.03028869628906 177.04159545898438 190.28379821777344 210.25375366210938 215.07408142089844 215.7423095703125 220.7188720703125 235.17916870117188 242.34353637695312 227.4523468017578 203.92848205566406 177.0316162109375 152.46258544921875 166.31480407714844 176.25942993164062 167.00369262695312 174.52334594726562 206.7529296875 230.90577697753906 229.64793395996094 216.05035400390625 207.11691284179688 193.1343536376953 186.81028747558594 177.32455444335938 163.05438232421875 137.8746337890625 120.90242767333984 128.3651885986328 149.26272583007812 147.4273681640625 131.4940643310547 112.90386962890625 116.86244201660156 117.0884017944336 108.91791534423828 113.2857437133789 126.59245300292969 148.8473358154297 141.54225158691406 134.52305603027344 139.69647216796875 175.31654357910156 187.3729705810547 172.4253692626953 183.6836395263672 205.1088104248047 224.10110473632812 255.381103515625 260.0791320800781 238.19210815429688 220.6078643798828 234.0835418701172 237.22793579101562 224.67916870117188 212.0562744140625 194.02659606933594 182.801025390625 165.86756896972656 141.96829223632812 131.35009765625 127.56759643554688 126.6521987915039 91.02836608886719 76.60419464111328 78.90876770019531 94.34930419921875 127.15022277832031 165.97067260742188 175.0007781982422 153.2909393310547 150.0439453125 160.1704559326172 172.38632202148438 179.28485107421875 156.68740844726562 129.63087463378906 142.99603271484375 163.5438690185547 153.3076934814453 156.34205627441406 179.7802734375 171.3440399169922 155.00514221191406 169.1559600830078 185.07948303222656 194.2223358154297 182.27330017089844 172.11264038085938 188.23513793945312 206.5547637939453 210.25674438476562 210.4756622314453 192.90625 181.8982696533203 177.4840087890625 173.64715576171875 171.29664611816406 162.8433837890625 154.882568359375 151.1179656982422 156.09112548828125 137.9649200439453 119.53791046142578 113.84573364257812 111.99909973144531 112.31002807617188 110.63612365722656 106.43409729003906 114.36022186279297 129.66905212402344 122.25685119628906 112.53504180908203 107.53971862792969 111.5369644165039 114.21245574951172 109.91866302490234 106.75469970703125 114.54214477539062 136.85353088378906 158.90504455566406 142.3988494873047 128.49508666992188 130.29603576660156 136.97491455078125 142.875 108.33438873291016 89.47684478759766 99.71907043457031 124.46437072753906 144.97964477539062 154.2967529296875 154.62901306152344 153.35887145996094 153.48184204101562 140.66098022460938 123.30735778808594 124.7114486694336 140.30303955078125 147.34730529785156 160.37525939941406 164.9043731689453 148.90821838378906 144.20291137695312 162.36328125 172.32470703125
171.32391357421875 167.36488342285156 160.2447052001953 154.48681640625 147.74069213867188 146.22837829589844 160.39854431152344 160.10787963867188 150.94911193847656 149.32081604003906 172.43968200683594 179.9401092529297 161.26531982421875 143.024169921875 136.6737060546875 140.54299926757812 143.51795959472656 148.6275177001953 162.14254760742188 168.91734313964844 171.44664001464844 184.37197875976562 188.87205505371094 208.41200256347656 223.20785522460938 229.74954223632812 236.2624053955078 230.25006103515625 208.1199951171875 176.3447723388672 152.5596160888672 155.63502502441406 168.5740203857422 176.14784240722656 197.33338928222656 219.01809692382812 226.4425506591797 222.89097595214844 207.57728576660156 192.57723999023438 173.0523681640625 167.8231964111328 170.94793701171875 173.876220703125 162.30540466308594 132.7030792236328 116.21099853515625 110.24520111083984 116.0199966430664 114.30118560791016 111.88230895996094 108.7429428100586 123.26972961425781 114.99687957763672 107.34239196777344 113.21746826171875 126.053466796875 126.48523712158203 129.39010620117188 148.14999389648438 171.48452758789062 166.44512939453125 158.9342803955078 180.30223083496094 202.55880737304688 218.71719360351562 247.0913848876953 242.88816833496094 212.13104248046875 201.005126953125 212.84173583984375 215.673828125 194.5596160888672 191.7406005859375 184.402099609375 169.38807678222656 164.9210662841797 163.38418579101562 149.9642791748047 130.57147216796875 115.12020874023438 89.3620834350586 79.36612701416016 77.63648986816406 82.83182525634766 95.84199523925781 129.23097229003906 157.1981201171875 144.72476196289062 143.06300354003906 151.93020629882812 163.4273223876953 174.9873046875 150.79100036621094 116.91752624511719 119.90536499023438 140.60533142089844 135.0914306640625 133.08578491210938 160.60104370117188 167.01475524902344 147.00442504882812 152.62689208984375 165.46514892578125 166.24044799804688 163.7602996826172 167.25741577148438 185.71661376953125 185.4574432373047 186.74269104003906 198.8757781982422 198.2650146484375 177.31512451171875 166.0777587890625 165.36509704589844 167.7386474609375 161.63526916503906 157.73080444335938 166.8028106689453 179.2777862548828 168.1782684326172 152.8425750732422 141.38262939453125 125.40367126464844 107.77689361572266 102.15174865722656 98.1207275390625 92.83526611328125 106.01712036132812 100.99905395507812 112.5820083618164 108.6064453125 101.95061492919922 109.53494262695312 108.74150848388672 99.31787109375 110.12540435791016 125.16734313964844 136.0752410888672 136.2742919921875 117.13141632080078 110.79523468017578 129.63259887695312 137.159423828125 105.69818115234375 85.87960815429688 98.28339385986328 123.35487365722656 145.306884765625 146.44012451171875 150.76475524902344 147.96168518066406 152.37789916992188 146.81797790527344 121.72647094726562 125.91766357421875 137.0999755859375 136.3583984375 147.51937866210938 164.3525390625 152.67636108398438 143.0791015625 157.68760681152344 172.57809448242188
191.2890625 194.330810546875 193.48509216308594 179.1783905029297 158.35491943359375 144.666015625 146.07781982421875 146.93679809570312 143.9496612548828 157.11033630371094 187.1485595703125 199.2750701904297 180.0646514892578 162.09500122070312 145.0492401123047 138.6805419921875 136.2891387939453 136.206298828125 147.0057830810547 158.1183319091797 163.05984497070312 174.66175842285156 174.71304321289062 189.81549072265625 208.3406524658203 213.31626892089844 227.4204559326172 218.78536987304688 200.56454467773438 173.53929138183594 154.6817169189453 157.52780151367188 183.25015258789062 205.5486602783203 212.46768188476562 209.8953857421875 209.70396423339844 208.80630493164062 192.22938537597656 167.16065979003906 155.40184020996094 145.4088134765625 147.35406494140625 162.79830932617188 164.60157775878906 125.54621887207031 111.64035034179688 112.15121459960938 109.30037689208984 111.09475708007812 108.82304382324219 116.53382873535156 130.03562927246094 125.19880676269531 111.10626220703125 107.28999328613281 114.18416595458984 117.47775268554688 123.07662963867188 143.00677490234375 154.28628540039062 135.7552032470703 143.06610107421875 175.43760681152344 191.68324279785156 210.63514709472656 227.5187225341797 225.6357421875 207.49041748046875 189.4459991455078 191.13600158691406 195.9774932861328 174.83163452148438 173.2654571533203 178.9567413330078 164.1187286376953 146.23353576660156 143.8306884765625 137.8014678955078 112.05425262451172 91.27842712402344 87.809814453125 88.1293716430664 85.89143371582031 76.70928192138672 75.30940246582031 86.84683227539062 126.21599578857422 136.33872985839844 126.96285247802734 139.5105438232422 150.7858428955078 164.03384399414062 156.0262451171875 120.20205688476562 105.00676727294922 112.7431411743164 115.16468048095703 124.55284881591797 145.2953338623047 165.07290649414062 154.6651611328125 140.20045471191406 138.4586181640625 140.27932739257812 161.0447540283203 175.9623260498047 166.61813354492188 155.22021484375 157.5167999267578 181.87625122070312 213.159423828125 201.83045959472656 177.81619262695312 181.33934020996094 195.04017639160156 184.561279296875 169.79212951660156 181.5078582763672 199.3327178955078 201.5798797607422 188.8511505126953 172.0736541748047 143.71376037597656 110.16844177246094 96.18624114990234 96.60179138183594 91.2791519165039 91.17784118652344 89.60511016845703 115.29967498779297 116.20327758789062 101.59429168701172 94.94353485107422 99.15862274169922 97.25626373291016 114.45425415039062 117.15032196044922 113.17440032958984 119.6806411743164 106.67695617675781 104.1268539428711 129.20327758789062 135.19178771972656 118.44605255126953 92.50154876708984 86.9397201538086 105.61071014404297 129.93072509765625 137.2671356201172 147.97738647460938 146.7278289794922 146.23304748535156 144.9095916748047 124.24246978759766 111.14358520507812 110.53973388671875 126.30648803710938 144.6291961669922 157.79930114746094 152.59239196777344 144.43128967285156 145.30479431152344 162.0748748779297
191.44210815429688 209.82473754882812 214.0809783935547 195.3569793701172 172.61965942382812 155.79112243652344 148.01510620117188 143.16278076171875 148.35391235351562 167.2866973876953 194.59622192382812 207.49403381347656 195.18284606933594 185.6115264892578 171.81146240234375 156.4964141845703 145.2345733642578 139.09567260742188 137.89169311523438 144.96414184570312 158.49227905273438 160.00128173828125 161.37091064453125 174.58087158203125 188.64971923828125 196.9850616455078 199.21878051757812 195.99803161621094 188.3135223388672 164.94357299804688 149.2756805419922 160.1173858642578 192.99383544921875 214.82852172851562 204.36231994628906 193.86021423339844 199.77566528320312 190.20822143554688 169.04293823242188 151.13291931152344 140.1088409423828 129.3452606201172 121.91725158691406 124.47526550292969 141.50563049316406 127.5972671508789 112.96320343017578 114.1532211303711 122.64319610595703 134.44749450683594 136.7409210205078 140.6053924560547 153.9811248779297 152.52789306640625 136.51199340820312 113.29705810546875 105.88036346435547 111.26539611816406 110.26458740234375 120.45577239990234 129.2362823486328 128.60693359375 143.59304809570312 176.89295959472656 196.54714965820312 203.76858520507812 197.7526397705078 198.12619018554688 204.11119079589844 182.80784606933594 172.16258239746094 177.90199279785156 163.85360717773438 158.21200561523438 173.6540985107422 165.0393829345703 133.7946319580078 118.39639282226562 121.06996154785156 121.03244018554688 105.6480941772461 89.8305435180664 93.11774444580078 101.38002014160156 85.55223846435547 78.35708618164062 76.51638793945312 99.27520751953125 118.02327728271484 110.80408477783203 131.77598571777344 168.69300842285156 174.54611206054688 159.6401824951172 131.99734497070312 106.73304748535156 101.37092590332031 120.1400146484375 145.2841796875 157.31100463867188 176.58961486816406 169.67117309570312 150.24517822265625 134.44760131835938 127.51951599121094 140.42279052734375 149.5341033935547 142.3510284423828 149.5542755126953 169.7528839111328 189.32403564453125 217.63368225097656 214.97315979003906 197.63284301757812 198.45608520507812 213.27853393554688 204.924072265625 194.9866485595703 205.3356475830078 218.32598876953125 217.55975341796875 203.3699493408203 165.70838928222656 139.34552001953125 119.50330352783203 108.96734619140625 106.45963287353516 90.59043884277344 90.33175659179688 89.56851196289062 100.70943450927734 96.9503173828125 94.8304214477539 92.28292846679688 96.07758331298828 101.79548645019531 112.40171813964844 107.62486267089844 103.46880340576172 107.21520233154297 93.03498077392578 81.58739471435547 97.54393768310547 120.6807632446289 121.70587158203125 101.31753540039062 80.24347686767578 84.41820526123047 100.7513427734375 121.01031494140625 148.16912841796875 141.43296813964844 141.862548828125 146.47952270507812 140.85296630859375 118.95925903320312 109.2010726928711 122.36691284179688 140.54966735839844 145.77850341796875 140.76052856445312 136.76820373535156 137.3570556640625 150.76646423339844
183.61802673339844 210.357666015625 218.40017700195312 196.234375 176.34825134277344 174.68246459960938 177.63677978515625 173.26055908203125 172.0563201904297 181.3567657470703 201.27513122558594 220.06553649902344 212.93911743164062 205.1690673828125 194.94187927246094 185.28085327148438 177.5209197998047 164.1793670654297 146.6456298828125 136.9219512939453 144.91677856445312 148.95883178710938 164.5908660888672 176.95350646972656 166.7333526611328 149.123779296875 159.66651916503906 170.88853454589844 167.33457946777344 147.07907104492188 147.2216796875 172.70802307128906 195.5873260498047 192.51632690429688 181.476318359375 184.04806518554688 199.66720581054688 183.64556884765625 153.02325439453125 136.6881866455078 131.81622314453125 121.66167449951172 113.94223022460938 114.74986267089844 129.1247100830078 122.24818420410156 113.90962982177734 115.82221221923828 126.6036376953125 145.55035400390625 163.363037109375 170.99969482421875 171.80039978027344 169.6083526611328 160.3179473876953 134.4763946533203 115.40035247802734 104.45171356201172 102.91079711914062 108.92388153076172 119.46617126464844 126.8674087524414 134.14291381835938 153.44082641601562 191.17587280273438 191.181884765625 180.6907501220703 192.9263153076172 200.69393920898438 173.61044311523438 152.8040313720703 158.03466796875 154.1604461669922 139.9494171142578 148.87872314453125 141.00010681152344 106.53016662597656 90.05268859863281 100.32552337646484 130.3558349609375 130.3258819580078 101.33529663085938 89.16436004638672 93.07154846191406 88.24456787109375 85.19157409667969 78.17147064208984 80.00477600097656 88.8094482421875 96.26715087890625 112.55738067626953 168.81463623046875 184.7698974609375 157.6000518798828 130.08419799804688 107.40741729736328 101.08745574951172 132.32730102539062 165.01622009277344 172.4838409423828 171.38107299804688 168.09584045410156 160.94900512695312 141.55545043945312 125.25492095947266 128.69570922851562 148.30923461914062 160.35610961914062 181.3271026611328 202.815673828125 218.19285583496094 227.00169372558594 220.17813110351562 215.1102294921875 221.98561096191406 232.3926544189453 234.85655212402344 229.8361358642578 218.64894104003906 211.89089965820312 201.68246459960938 182.52784729003906 156.7427520751953 147.28269958496094 132.70266723632812 121.31251525878906 110.85475158691406 100.75569915771484 96.02685546875 95.89847564697266 89.92227935791016 87.61186981201172 86.69772338867188 88.36833953857422 87.42780303955078 89.44132995605469 93.06201171875 90.55068969726562 88.9236068725586 94.76343536376953 90.50607299804688 72.55193328857422 64.96965789794922 89.1320571899414 108.29130554199219 102.26261901855469 82.51834869384766 76.85514068603516 74.76248168945312 108.10002899169922 133.71359252929688 134.4873809814453 140.7910919189453 144.13998413085938 136.3917236328125 126.65090942382812 107.33341217041016 103.65262603759766 112.81058502197266 134.3860321044922 138.92494201660156 130.39476013183594 132.98977661132812 134.18614196777344
183.15615844726562 204.84417724609375 202.0840301513672 179.87171936035156 170.18199157714844 182.57875061035156 198.0922393798828 200.78553771972656 200.8492431640625 205.88133239746094 222.53892517089844 240.18687438964844 241.2578887939453 233.6461944580078 222.14439392089844 213.8046112060547 202.5546875 185.12635803222656 163.0126953125 147.1219482421875 136.91653442382812 139.8476104736328 152.08729553222656 150.7081756591797 138.7371063232422 127.09098815917969 133.6549835205078 138.50479125976562 142.21458435058594 142.74093627929688 164.99539184570312 188.37747192382812 187.51707458496094 175.5145721435547 163.9530487060547 170.29666137695312 186.28836059570312 179.9839324951172 149.06442260742188 130.82325744628906 129.9773406982422 118.0818862915039 121.70121765136719 130.26614379882812 118.4846420288086 117.01815032958984 112.488037109375 115.87010192871094 124.28215026855469 143.41065979003906 170.31307983398438 181.7989959716797 176.29510498046875 177.76976013183594 162.86489868164062 145.24618530273438 129.05270385742188 117.13655090332031 107.56399536132812 105.52982330322266 111.85393524169922 116.64479064941406 125.1838150024414 142.86717224121094 169.3202667236328 169.06947326660156 174.560546875 191.12893676757812 191.96414184570312 169.8876953125 128.9967498779297 121.32701873779297 128.3800506591797 114.14765930175781 105.76844024658203 108.39397430419922 90.88843536376953 81.1624526977539 90.01252746582031 124.35403442382812 133.24107360839844 107.73851013183594 85.59908294677734 89.1765365600586 89.9246826171875 94.70056915283203 88.06571960449219 74.1618423461914 70.76915740966797 76.79473876953125 100.8034896850586 161.50088500976562 174.66883850097656 137.5330352783203 109.88340759277344 94.7463150024414 107.52777862548828 150.2451934814453 178.9198760986328 169.3769073486328 149.08868408203125 141.55398559570312 145.3428497314453 132.90086364746094 134.3492889404297 149.31057739257812 166.73495483398438 178.64085388183594 197.96444702148438 223.59376525878906 241.11822509765625 235.9268035888672 221.73974609375 220.4567108154297 219.77468872070312 231.55438232421875 245.66793823242188 242.65432739257812 206.34693908691406 186.4541778564453 184.14767456054688 175.785400390625 175.4253692626953 171.2516632080078 154.82049560546875 137.94061279296875 123.65731811523438 118.7213363647461 117.01345825195312 114.33960723876953 89.42943572998047 96.21780395507812 84.9972152709961 80.28952026367188 77.87100219726562 77.47948455810547 79.18035888671875 78.26692962646484 77.76990509033203 82.79987335205078 85.66336822509766 74.69747924804688 66.5742416381836 71.48860168457031 98.9685287475586 89.05516815185547 76.6225814819336 82.143798828125 89.11070251464844 114.96464538574219 127.58714294433594 125.73933410644531 135.3500213623047 138.38368225097656 134.6168670654297 121.17056274414062 96.57666015625 92.0010986328125 102.31901550292969 131.60549926757812 139.85150146484375 130.23336791992188 122.27301025390625 116.08955383300781
184.5618896484375 203.53265380859375 194.53976440429688 176.64068603515625 170.990234375 177.99569702148438 191.97227478027344 198.9064178466797 205.75697326660156 222.47146606445312 237.57595825195312 242.60931396484375 245.31100463867188 241.47503662109375 231.69937133789062 226.92987060546875 218.32113647460938 202.62921142578125 179.01031494140625 156.11318969726562 139.10386657714844 133.4011993408203 135.1862335205078 135.02590942382812 132.0605926513672 135.8592529296875 133.85165405273438 130.10287475585938 131.6861572265625 143.50408935546875 164.54258728027344 182.93035888671875 180.45401000976562 166.3623046875 153.8568115234375 162.7452850341797 171.85671997070312 168.64483642578125 133.03501892089844 115.05717468261719 116.6611328125 114.3291015625 131.32327270507812 143.26400756835938 132.9973907470703 123.23701477050781 116.32198333740234 116.20260620117188 120.33544158935547 137.5170135498047 174.0989532470703 195.55165100097656 195.37173461914062 188.71839904785156 168.73011779785156 158.8595733642578 150.2969207763672 137.09555053710938 121.3716812133789 103.14998626708984 102.0924072265625 106.61187744140625 124.66437530517578 137.5561065673828 140.7386932373047 144.73748779296875 172.7607879638672 185.7361602783203 179.15602111816406 178.31056213378906 142.6502685546875 107.61873626708984 100.75163269042969 93.69612121582031 87.11377716064453 88.53022766113281 91.09303283691406 98.00249481201172 81.28728485107422 102.50972747802734 121.60610961914062 104.50393676757812 79.48516845703125 99.60719299316406 106.0941162109375 94.88374328613281 87.1316909790039 78.23299407958984 68.37994384765625 66.68717956542969 102.06462860107422 143.66542053222656 139.6594696044922 114.83094024658203 93.89546966552734 88.46217346191406 127.3816909790039 166.31503295898438 184.54812622070312 176.62673950195312 156.36936950683594 132.02882385253906 124.12469482421875 119.13431549072266 129.96099853515625 143.00660705566406 148.9250946044922 155.22872924804688 183.14935302734375 230.68902587890625 243.6858367919922 226.9491729736328 212.44813537597656 208.5572052001953 209.3350372314453 225.4104766845703 241.15843200683594 243.7700958251953 239.15289306640625 221.02920532226562 209.03683471679688 207.41537475585938 202.48109436035156 189.29978942871094 170.7040557861328 153.18959045410156 144.12979125976562 141.393798828125 134.43045043945312 125.39228820800781 116.67342376708984 104.37911224365234 91.42232513427734 90.19548797607422 90.72483825683594 83.32381439208984 77.3260269165039 75.90422821044922 71.25018310546875 71.64293670654297 80.90037536621094 71.08250427246094 72.52568817138672 63.06016540527344 83.81536102294922 68.07917785644531 65.54888153076172 70.516845703125 84.80321502685547 120.39945983886719 130.92855834960938 123.10070037841797 121.8780746459961 117.10912322998047 114.05741882324219 116.9336166381836 104.87271881103516 92.01905059814453 106.07826232910156 129.44158935546875 135.9551239013672 120.91604614257812 112.35899353027344 109.82891845703125
192.01953125 212.09945678710938 210.90145874023438 199.1272430419922 186.84251403808594 187.2876434326172 189.84396362304688 198.89915466308594 213.4925079345703 231.3447723388672 228.6964874267578 219.88844299316406 217.26890563964844 217.33189392089844 208.48898315429688 215.28482055664062 219.94244384765625 212.71263122558594 182.00953674316406 155.46200561523438 142.2383270263672 133.70968627929688 131.16903686523438 135.95692443847656 144.64794921875 152.37445068359375 145.9597930908203 138.15255737304688 134.9940643310547 134.1348876953125 146.14585876464844 162.43447875976562 173.76629638671875 161.79591369628906 147.20433044433594 147.20413208007812 146.7733612060547 138.1099853515625 115.4585952758789 114.90878295898438 118.81981658935547 125.00789642333984 139.48199462890625 156.63697814941406 147.21035766601562 129.0984649658203 118.93527221679688 119.28846740722656 123.13092803955078 142.21258544921875 178.73854064941406 192.37083435058594 191.69302368164062 189.72779846191406 169.2847442626953 164.86532592773438 159.888671875 140.31968688964844 122.63875579833984 106.88079071044922 101.55428314208984 100.6955337524414 117.76707458496094 131.6132049560547 134.81781005859375 145.09873962402344 169.0484619140625 178.11117553710938 164.09439086914062 167.9810791015625 167.30519104003906 128.50196838378906 101.3367691040039 90.4305648803711 95.2568588256836 97.23143768310547 96.32365417480469 116.80890655517578 107.48053741455078 80.78770446777344 98.87505340576172 95.4744873046875 97.37199401855469 126.7464828491211 128.58984375 111.83370208740234 96.9003677368164 83.49372863769531 72.25948333740234 83.79986572265625 115.91328430175781 119.77661895751953 98.6307144165039 91.24607849121094 86.38148498535156 88.81133270263672 129.6244659423828 156.73843383789062 177.8286895751953 177.03292846679688 152.11099243164062 123.51388549804688 112.13597106933594 119.24928283691406 129.28790283203125 139.83282470703125 146.89749145507812 156.66253662109375 191.36532592773438 231.9666290283203 238.17127990722656 226.2889862060547 212.1930694580078 208.53936767578125 217.73809814453125 229.52865600585938 221.043212890625 216.37660217285156 233.86407470703125 241.95925903320312 233.27792358398438 222.849609375 212.2877655029297 205.879150390625 185.31494140625 166.3950958251953 153.36163330078125 140.7347869873047 125.15718078613281 118.81678009033203 122.4036865234375 126.57208251953125 115.9722671508789 107.80757141113281 103.42984771728516 94.12248992919922 86.889404296875 81.38429260253906 71.28022003173828 69.06664276123047 70.7181396484375 67.15640258789062 73.1119613647461 66.88359069824219 69.80902099609375 64.55036163330078 61.35260009765625 75.6646957397461 106.11859130859375 129.7623291015625 136.63140869140625 124.96809387207031 112.17640686035156 103.69532775878906 99.65678405761719 111.52355194091797 118.00148010253906 97.28325653076172 96.77458953857422 118.59634399414062 121.23127746582031 110.5751724243164 110.5904541015625 108.55059814453125
209.0403594970703 218.81710815429688 227.2301483154297 225.49867248535156 210.5645751953125 214.79043579101562 221.60177612304688 228.748291015625 240.3903045654297 241.13539123535156 217.39520263671875 198.70574951171875 195.80023193359375 196.3340606689453 186.3953399658203 194.5327606201172 199.2577667236328 199.57325744628906 181.6463165283203 155.92657470703125 143.51089477539062 140.68023681640625 142.92333984375 148.26734924316406 168.78306579589844 177.3716278076172 164.03524780273438 150.47067260742188 139.09422302246094 127.53524780273438 130.00814819335938 139.5891571044922 153.63565063476562 149.7156524658203 144.68362426757812 141.94448852539062 137.1457061767578 125.42764282226562 115.58369445800781 120.98617553710938 129.99449157714844 133.17617797851562 143.3631134033203 157.45579528808594 159.5707244873047 148.06394958496094 132.98277282714844 132.1101531982422 138.0596466064453 156.50186157226562 177.51084899902344 172.5665283203125 166.34555053710938 165.89096069335938 156.88839721679688 140.8396453857422 135.39710998535156 115.37286376953125 106.30058288574219 100.41590881347656 100.29955291748047 102.3573989868164 108.81941223144531 125.03946685791016 132.3344268798828 137.27047729492188 146.7940216064453 145.1204071044922 137.2390594482422 141.47787475585938 153.216552734375 133.2605438232422 98.83662414550781 102.96947479248047 120.88761138916016 121.35620880126953 125.09222412109375 139.8599853515625 113.82745361328125 84.55687713623047 82.64312744140625 93.23677825927734 126.62649536132812 149.31593322753906 144.5828399658203 122.66537475585938 103.25511932373047 85.26541900634766 74.8843765258789 94.63541412353516 103.56756591796875 89.8823013305664 75.2979965209961 74.18045806884766 81.31365203857422 101.15907287597656 135.1762237548828 163.15066528320312 179.98707580566406 169.5214385986328 138.17095947265625 116.20883178710938 115.99827575683594 127.12004852294922 145.62367248535156 162.92404174804688 177.99542236328125 188.02183532714844 209.265869140625 232.37875366210938 234.4192352294922 233.1317596435547 224.23007202148438 209.338134765625 214.04229736328125 220.1523895263672 215.01502990722656 201.50384521484375 204.89422607421875 229.2891845703125 232.09791564941406 220.4575653076172 208.36886596679688 204.02059936523438 197.2212677001953 182.9781036376953 164.67416381835938 147.26182556152344 146.0828094482422 142.61964416503906 146.6165771484375 151.13426208496094 130.60379028320312 111.49308776855469 109.93342590332031 116.76528930664062 106.93026733398438 88.68043518066406 69.79334259033203 68.80657196044922 69.21765899658203 70.88741302490234 73.15458679199219 67.1395034790039 61.55887222290039 66.8183364868164 84.86685943603516 94.64115142822266 106.47793579101562 126.98040771484375 133.92333984375 125.3590316772461 122.63260650634766 110.77101135253906 104.19860076904297 110.13094329833984 118.28855895996094 99.80597686767578 86.4852066040039 102.9278793334961 108.92357635498047 111.80121612548828 118.39063262939453 110.05477142333984
221.6812744140625 213.6265106201172 222.2363739013672 234.89093017578125 236.78811645507812 236.58563232421875 237.95298767089844 243.0113525390625 247.04119873046875 241.35546875 220.6271514892578 201.66114807128906 193.90476989746094 185.54212951660156 176.3790740966797 180.25460815429688 183.19996643066406 181.42930603027344 166.1604766845703 154.12171936035156 154.89634704589844 158.78184509277344 158.04580688476562 162.96946716308594 181.20498657226562 185.69522094726562 176.77651977539062 159.04188537597656 141.6483612060547 125.68792724609375 125.67167663574219 132.8650665283203 142.9921417236328 139.5105438232422 139.8071746826172 135.1592254638672 127.35971069335938 121.02178192138672 116.09626770019531 115.71451568603516 141.01475524902344 152.34078979492188 157.46348571777344 167.73947143554688 175.26490783691406 165.4606170654297 161.30177307128906 160.5275115966797 156.598876953125 162.0748291015625 165.2176055908203 161.0265350341797 157.8284454345703 148.54368591308594 151.33465576171875 133.55560302734375 121.89647674560547 120.103271484375 127.07122039794922 115.1739501953125 98.87430572509766 99.25044250488281 102.48970031738281 118.69158172607422 127.22651672363281 117.29998779296875 113.01129150390625 104.05302429199219 100.9120864868164 110.86640167236328 140.3309326171875 136.34283447265625 98.26973724365234 101.63804626464844 122.3931884765625 142.17068481445312 171.83309936523438 177.65562438964844 125.90702056884766 84.72146606445312 79.75862884521484 113.39698791503906 146.98252868652344 143.46417236328125 129.21221923828125 104.97594451904297 80.17378997802734 69.0997085571289 70.24102020263672 72.75811767578125 56.26753616333008 56.18498229980469 59.08206558227539 58.081905364990234 82.5145263671875 117.60808563232422 160.3739013671875 172.01048278808594 178.29232788085938 162.48068237304688 131.4037322998047 111.88921356201172 125.15399932861328 145.3896484375 164.93167114257812 187.32313537597656 200.5438232421875 211.26251220703125 220.51766967773438 227.74607849121094 225.36062622070312 231.885986328125 223.42315673828125 209.12332153320312 207.61318969726562 201.62564086914062 202.04104614257812 194.6273193359375 186.77915954589844 214.91522216796875 232.1583251953125 208.3714599609375 188.1182403564453 177.83447265625 184.32785034179688 177.5066680908203 161.5843048095703 156.41644287109375 171.9153594970703 174.87342834472656 167.76028442382812 160.6755828857422 129.2189178466797 112.71746063232422 119.310546875 140.41024780273438 127.02763366699219 92.91819763183594 69.2777099609375 68.83856964111328 70.364013671875 81.83367156982422 79.73194885253906 63.305233001708984 67.58119201660156 89.56473541259766 97.7704086303711 91.40454864501953 90.49707794189453 112.81919860839844 117.77141571044922 116.89166259765625 123.03368377685547 103.42377471923828 93.62155151367188 109.42277526855469 111.220703125 86.77107238769531 76.78225708007812 85.83341217041016 100.7001724243164 117.46333312988281 118.38355255126953 112.45378112792969
216.6015167236328 207.6481475830078 208.0254364013672 223.40003967285156 239.29495239257812 244.20050048828125 228.40875244140625 228.27931213378906 238.3070068359375 238.83934020996094 235.7256622314453 222.1962127685547 212.1478729248047 199.3613739013672 184.6967315673828 174.75485229492188 174.98289489746094 171.2042694091797 159.9793243408203 161.97625732421875 176.3626708984375 182.0687713623047 182.92918395996094 184.1583251953125 193.76748657226562 191.56967163085938 183.35086059570312 171.29034423828125 152.51947021484375 133.17730712890625 123.24435424804688 126.6186752319336 135.48794555664062 128.4203338623047 126.03927612304688 120.3465576171875 116.92543029785156 116.1815185546875 117.57200622558594 138.09242248535156 161.5307159423828 180.56227111816406 182.60011291503906 183.3170928955078 181.03477478027344 169.74444580078125 168.15811157226562 164.65061950683594 152.78993225097656 141.2327880859375 136.86795043945312 144.94589233398438 155.81082153320312 147.7491455078125 133.22341918945312 118.25816345214844 115.10144805908203 131.30899047851562 151.3063507080078 143.01516723632812 117.41319274902344 101.67828369140625 97.77288818359375 117.185791015625 116.76378631591797 101.50726318359375 94.4357681274414 97.29534912109375 98.15383911132812 94.3015365600586 118.07820129394531 127.1479263305664 107.07221221923828 95.24324798583984 110.41094207763672 140.6551971435547 185.97265625 199.6700897216797 163.68597412109375 130.6524200439453 133.39028930664062 156.25086975097656 139.57308959960938 108.52849578857422 87.45903778076172 77.50983428955078 62.7730712890625 63.69648742675781 60.765342712402344 62.34193801879883 75.80461120605469 80.53765869140625 80.35623931884766 64.52324676513672 81.94403839111328 116.33582305908203 139.0922393798828 139.90501403808594 157.08177185058594 162.33876037597656 130.46835327148438 105.5064468383789 126.24964904785156 169.7247772216797 191.22042846679688 196.2055206298828 188.35508728027344 193.8800506591797 207.76031494140625 219.76229858398438 219.70126342773438 217.8488311767578 206.86093139648438 200.9954376220703 195.0618896484375 185.92901611328125 179.7433319091797 181.67434692382812 186.53993225097656 203.5902099609375 225.9405517578125 225.42721557617188 209.53245544433594 188.5760040283203 166.50270080566406 158.9900360107422 155.20985412597656 160.67892456054688 167.89016723632812 170.26805114746094 164.11122131347656 149.64292907714844 126.95454406738281 118.8087158203125 130.1510772705078 148.7208251953125 142.19778442382812 113.5759506225586 88.44302368164062 80.25885009765625 81.2467269897461 77.08175659179688 81.27762603759766 65.72129821777344 59.525020599365234 83.4190902709961 93.58319854736328 84.71980285644531 86.98151397705078 102.94867706298828 100.31945037841797 106.76911926269531 106.639404296875 78.25315856933594 75.64505004882812 94.67529296875 80.6492919921875 65.79727935791016 72.69091033935547 92.47111511230469 97.23590087890625 116.55311584472656 120.62169647216797 115.68444061279297
213.51483154296875 205.89529418945312 208.5112762451172 217.62197875976562 228.4906005859375 235.13626098632812 220.58200073242188 217.5267333984375 225.35337829589844 223.14846801757812 228.2340850830078 223.89569091796875 216.24217224121094 210.91677856445312 197.57936096191406 178.93289184570312 167.14247131347656 161.46002197265625 152.22555541992188 169.3248291015625 195.25680541992188 206.89918518066406 213.79452514648438 212.99673461914062 209.1746368408203 203.0384521484375 193.10577392578125 174.10617065429688 151.11514282226562 131.86175537109375 122.27050018310547 120.75565338134766 120.46205139160156 118.84571838378906 118.26432037353516 117.26985931396484 117.08407592773438 124.31962585449219 138.1253204345703 165.77610778808594 190.5277557373047 205.46347045898438 201.63876342773438 191.37362670898438 181.99996948242188 170.36846923828125 158.27706909179688 146.61048889160156 141.3419647216797 141.53123474121094 142.0253143310547 137.33505249023438 146.10511779785156 134.527587890625 120.4121322631836 117.30205535888672 132.59774780273438 155.4059295654297 173.1813201904297 164.36746215820312 141.623779296875 115.39300537109375 97.43224334716797 109.7111587524414 102.22615814208984 97.99542999267578 98.22199249267578 105.04715728759766 109.75589752197266 104.46952056884766 94.23047637939453 99.02099609375 96.29197692871094 94.98004913330078 104.70246124267578 135.65231323242188 174.68756103515625 203.9971466064453 205.14642333984375 193.07240295410156 182.74993896484375 168.63941955566406 130.94415283203125 106.30065155029297 101.85553741455078 85.66002655029297 61.4643669128418 62.80780029296875 75.1057357788086 98.14676666259766 125.89842987060547 133.8776397705078 111.02445220947266 76.04593658447266 73.64813995361328 91.23216247558594 101.7323989868164 106.11676788330078 127.60760498046875 133.26890563964844 111.08880615234375 96.13435363769531 131.8214569091797 187.15603637695312 187.90447998046875 175.13046264648438 174.4785614013672 180.53936767578125 187.982421875 204.06973266601562 210.51502990722656 202.51181030273438 195.5753936767578 192.2530059814453 189.58766174316406 188.1853790283203 184.89158630371094 181.22679138183594 187.80116271972656 191.47560119628906 205.134033203125 225.04110717773438 228.57899475097656 218.9457550048828 190.53741455078125 171.92303466796875 169.14996337890625 167.096923828125 158.65016174316406 152.8441162109375 142.53489685058594 138.09832763671875 139.17398071289062 139.22610473632812 144.835205078125 141.4571533203125 130.74546813964844 125.56831359863281 117.71321868896484 102.76156616210938 90.37617492675781 75.62822723388672 71.40424346923828 65.61209106445312 58.210655212402344 75.05179595947266 75.16876983642578 77.28315734863281 87.30687713623047 92.20884704589844 89.60543823242188 104.39669799804688 110.85952758789062 85.30747985839844 69.07421875 76.03368377685547 64.15817260742188 74.17003631591797 98.15300750732422 99.95649719238281 106.97467041015625 120.90853881835938 121.34133911132812 120.21874237060547
214.4025421142578 205.4346923828125 199.42628479003906 209.17169189453125 216.42123413085938 222.05337524414062 214.4027557373047 211.9462890625 208.18380737304688 210.81109619140625 210.64320373535156 203.7252960205078 200.22348022460938 202.6885528564453 193.22865295410156 173.29483032226562 165.1825408935547 159.29347229003906 155.52044677734375 174.89794921875 202.90040588378906 223.8366241455078 232.0880584716797 232.33209228515625 220.31712341308594 208.67837524414062 188.46685791015625 157.69876098632812 139.20993041992188 132.68353271484375 124.65101623535156 119.36222076416016 118.69416809082031 119.6694564819336 121.5699462890625 126.30870819091797 133.8140869140625 152.88145446777344 172.38311767578125 185.7440643310547 195.21002197265625 194.9949493408203 190.07879638671875 178.77761840820312 172.64772033691406 164.7743682861328 153.98719787597656 149.8833770751953 152.8729705810547 158.211181640625 158.19163513183594 137.8883056640625 129.51885986328125 123.70020294189453 125.64708709716797 144.02377319335938 167.034423828125 181.87181091308594 181.1209716796875 169.6083221435547 152.9771728515625 120.94141387939453 98.53243255615234 98.71094512939453 99.77281188964844 112.36320495605469 104.0818099975586 101.64894104003906 108.03539276123047 108.65524291992188 104.59397888183594 99.80220031738281 97.0052719116211 101.00531005859375 117.45539093017578 144.7129669189453 179.53976440429688 205.12246704101562 215.90170288085938 203.82164001464844 169.77735900878906 141.7740020751953 122.38431549072266 124.73982238769531 134.38275146484375 113.70594787597656 97.2244873046875 99.12830352783203 117.56017303466797 141.96170043945312 152.94082641601562 143.6025390625 110.69229888916016 73.42573547363281 55.7171630859375 55.63460922241211 63.326087951660156 74.60283660888672 87.01603698730469 84.82733917236328 82.03145599365234 89.44095611572266 133.64366149902344 188.21737670898438 175.61997985839844 165.6529083251953 182.80372619628906 188.11279296875 189.3306121826172 195.5719757080078 199.9886016845703 201.758056640625 201.33255004882812 196.85659790039062 199.92910766601562 201.70401000976562 193.0087432861328 177.41030883789062 178.43092346191406 190.26368713378906 197.09222412109375 210.2648162841797 212.30093383789062 212.90945434570312 205.12619018554688 180.9205322265625 169.8919219970703 169.31561279296875 167.35166931152344 170.84390258789062 160.36944580078125 139.66070556640625 133.01455688476562 141.47413635253906 146.23629760742188 126.69186401367188 104.33659362792969 103.13555908203125 106.18264770507812 104.25135803222656 95.01886749267578 73.2228775024414 64.5091552734375 62.03662109375 58.87548065185547 66.51579284667969 60.42013168334961 66.37982940673828 68.46074676513672 66.52128601074219 73.2312240600586 97.4959487915039 104.52120208740234 81.77706146240234 62.30894470214844 61.12482452392578 63.49934768676758 82.41542053222656 93.19271087646484 95.02788543701172 105.7491226196289 123.43296813964844 117.36410522460938 116.47230529785156
