259.0 260.0 255.0 334.0 271.0 267.0 284.0 247.0 240.0 286.0 349.0 369.0 276.0 373.0 370.0 346.0 255.0 252.0 243.0 233.0 223.0 283.0 295.0 310.0 303.0 257.0 237.0 221.0 228.0 281.0 278.0 250.0 179.0 264.0 276.0 214.0 172.0 232.0 167.0 231.0 235.0 146.0 200.0 142.0 203.0 225.0 121.0 89.0 86.0 83.0 74.0 75.0 169.0 63.0 149.0 53.0 168.0 74.0 155.0 198.0 124.0 208.0 187.0 167.0 33.0 128.0 18.0 1.0 1.0 41.0 154.0 134.0 61.0 75.0 143.0 95.0 111.0 164.0 170.0 170.0 123.0 159.0 110.0 108.0 101.0 124.0 87.0 121.0 113.0 105.0 73.0 74.0 115.0 137.0 120.0 139.0 157.0 172.0 151.0 141.0 125.0 116.0 130.0 108.0 117.0 128.0 131.0 135.0 140.0 155.0 132.0 117.0 114.0 160.0 142.0 108.0 90.0 65.0 57.0 91.0 
259.0 373.0 276.0 353.0 355.0 344.0 256.0 293.0 363.0 346.0 301.0 323.0 305.0 287.0 287.0 274.0 255.0 242.0 243.0 283.0 232.0 241.0 332.0 295.0 270.0 319.0 322.0 323.0 343.0 300.0 259.0 202.0 192.0 215.0 284.0 280.0 197.0 201.0 191.0 250.0 241.0 174.0 183.0 223.0 192.0 243.0 180.0 212.0 212.0 181.0 174.0 74.0 66.0 56.0 55.0 54.0 46.0 44.0 43.0 44.0 164.0 52.0 54.0 159.0 165.0 154.0 137.0 112.0 -9999.0 117.0 119.0 36.0 37.0 82.0 74.0 84.0 94.0 120.0 168.0 171.0 169.0 161.0 152.0 153.0 142.0 128.0 116.0 80.0 95.0 73.0 79.0 136.0 147.0 166.0 172.0 172.0 172.0 172.0 135.0 126.0 117.0 125.0 101.0 101.0 130.0 122.0 156.0 155.0 156.0 161.0 133.0 150.0 100.0 99.0 122.0 79.0 67.0 76.0 53.0 50.0 
258.0 282.0 387.0 387.0 311.0 379.0 270.0 271.0 283.0 401.0 389.0 328.0 358.0 287.0 354.0 274.0 362.0 360.0 337.0 319.0 243.0 333.0 352.0 349.0 336.0 334.0 262.0 322.0 245.0 232.0 222.0 277.0 223.0 289.0 240.0 292.0 246.0 223.0 223.0 225.0 228.0 258.0 223.0 266.0 264.0 258.0 248.0 162.0 146.0 129.0 114.0 101.0 93.0 180.0 184.0 179.0 78.0 118.0 42.0 40.0 38.0 36.0 35.0 38.0 144.0 81.0 49.0 30.0 1.0 -9999.0 26.0 111.0 39.0 69.0 80.0 128.0 149.0 159.0 147.0 143.0 142.0 156.0 131.0 125.0 128.0 118.0 82.0 79.0 67.0 95.0 85.0 145.0 153.0 166.0 140.0 172.0 137.0 164.0 129.0 138.0 103.0 117.0 112.0 96.0 103.0 140.0 152.0 144.0 156.0 145.0 185.0 130.0 125.0 81.0 101.0 96.0 61.0 73.0 49.0 37.0 
364.0 277.0 387.0 402.0 349.0 417.0 397.0 379.0 295.0 400.0 400.0 375.0 295.0 293.0 381.0 360.0 290.0 283.0 275.0 259.0 253.0 257.0 351.0 311.0 291.0 272.0 257.0 252.0 233.0 232.0 320.0 341.0 325.0 247.0 274.0 315.0 258.0 298.0 286.0 254.0 297.0 293.0 280.0 252.0 238.0 214.0 248.0 224.0 219.0 207.0 135.0 186.0 129.0 194.0 209.0 199.0 161.0 173.0 129.0 158.0 118.0 115.0 33.0 30.0 145.0 149.0 145.0 108.0 1.0 95.0 117.0 113.0 121.0 131.0 146.0 153.0 163.0 163.0 162.0 153.0 139.0 150.0 122.0 116.0 105.0 102.0 116.0 82.0 68.0 88.0 105.0 125.0 146.0 124.0 160.0 160.0 126.0 137.0 130.0 102.0 113.0 85.0 104.0 82.0 97.0 132.0 141.0 127.0 150.0 136.0 169.0 130.0 112.0 81.0 65.0 83.0 58.0 53.0 72.0 70.0 
283.0 282.0 281.0 400.0 439.0 440.0 335.0 323.0 426.0 357.0 333.0 317.0 387.0 402.0 410.0 370.0 323.0 377.0 284.0 271.0 352.0 371.0 396.0 382.0 319.0 360.0 281.0 352.0 263.0 350.0 254.0 283.0 345.0 349.0 336.0 325.0 326.0 317.0 303.0 288.0 298.0 296.0 295.0 284.0 273.0 251.0 133.0 123.0 223.0 221.0 217.0 231.0 218.0 214.0 214.0 215.0 163.0 197.0 175.0 119.0 66.0 35.0 27.0 119.0 127.0 139.0 118.0 72.0 1.0 26.0 80.0 52.0 65.0 85.0 94.0 115.0 159.0 141.0 157.0 149.0 132.0 151.0 144.0 126.0 122.0 133.0 131.0 114.0 63.0 53.0 62.0 74.0 91.0 129.0 137.0 136.0 116.0 115.0 108.0 112.0 82.0 95.0 74.0 76.0 89.0 127.0 119.0 148.0 157.0 128.0 124.0 139.0 92.0 130.0 89.0 55.0 68.0 71.0 46.0 42.0 
283.0 292.0 308.0 320.0 350.0 380.0 356.0 445.0 456.0 449.0 353.0 329.0 343.0 405.0 337.0 318.0 314.0 381.0 356.0 280.0 378.0 325.0 398.0 388.0 323.0 310.0 301.0 368.0 302.0 364.0 299.0 357.0 243.0 344.0 334.0 200.0 326.0 326.0 309.0 138.0 234.0 299.0 296.0 218.0 161.0 134.0 202.0 83.0 78.0 217.0 218.0 220.0 141.0 151.0 106.0 132.0 209.0 204.0 186.0 170.0 167.0 139.0 26.0 25.0 25.0 21.0 22.0 1.0 1.0 33.0 40.0 58.0 91.0 152.0 160.0 159.0 158.0 120.0 120.0 122.0 126.0 145.0 142.0 141.0 153.0 152.0 110.0 132.0 91.0 52.0 52.0 49.0 89.0 75.0 119.0 121.0 92.0 113.0 113.0 81.0 79.0 86.0 64.0 92.0 87.0 114.0 129.0 150.0 151.0 142.0 111.0 133.0 133.0 132.0 70.0 72.0 48.0 44.0 71.0 44.0 
441.0 301.0 316.0 426.0 468.0 483.0 376.0 374.0 446.0 438.0 365.0 352.0 369.0 453.0 437.0 326.0 388.0 375.0 283.0 286.0 321.0 419.0 369.0 348.0 335.0 341.0 413.0 346.0 334.0 376.0 362.0 200.0 188.0 144.0 278.0 165.0 244.0 262.0 244.0 213.0 113.0 114.0 121.0 249.0 142.0 96.0 84.0 104.0 75.0 73.0 64.0 108.0 56.0 54.0 45.0 182.0 197.0 153.0 159.0 155.0 158.0 161.0 61.0 126.0 23.0 25.0 101.0 1.0 22.0 95.0 112.0 118.0 75.0 104.0 121.0 122.0 139.0 113.0 117.0 137.0 141.0 140.0 124.0 130.0 154.0 151.0 142.0 140.0 95.0 81.0 63.0 47.0 44.0 88.0 84.0 107.0 108.0 82.0 106.0 76.0 92.0 60.0 66.0 90.0 105.0 108.0 106.0 114.0 136.0 125.0 124.0 88.0 87.0 126.0 119.0 93.0 70.0 40.0 34.0 65.0 
320.0 308.0 326.0 340.0 367.0 461.0 504.0 402.0 478.0 398.0 390.0 384.0 459.0 411.0 376.0 361.0 315.0 300.0 297.0 390.0 415.0 424.0 376.0 416.0 356.0 430.0 443.0 359.0 409.0 257.0 214.0 190.0 249.0 137.0 133.0 133.0 131.0 123.0 120.0 117.0 201.0 102.0 102.0 217.0 103.0 84.0 84.0 183.0 112.0 161.0 66.0 57.0 52.0 49.0 49.0 35.0 37.0 153.0 37.0 117.0 53.0 154.0 27.0 103.0 116.0 122.0 130.0 1.0 -9999.0 63.0 69.0 87.0 144.0 147.0 115.0 98.0 92.0 101.0 119.0 114.0 130.0 115.0 122.0 149.0 151.0 137.0 102.0 131.0 102.0 106.0 83.0 92.0 44.0 45.0 87.0 71.0 65.0 69.0 98.0 95.0 50.0 73.0 77.0 87.0 69.0 99.0 83.0 99.0 122.0 111.0 120.0 115.0 72.0 115.0 94.0 82.0 55.0 60.0 52.0 26.0 
432.0 311.0 436.0 426.0 551.0 461.0 451.0 431.0 485.0 395.0 383.0 474.0 465.0 406.0 429.0 425.0 325.0 427.0 422.0 348.0 322.0 439.0 386.0 469.0 376.0 446.0 449.0 446.0 420.0 375.0 344.0 247.0 144.0 137.0 132.0 282.0 148.0 273.0 158.0 263.0 165.0 104.0 103.0 102.0 174.0 85.0 198.0 208.0 215.0 178.0 116.0 118.0 185.0 161.0 83.0 148.0 100.0 38.0 37.0 35.0 31.0 32.0 28.0 28.0 134.0 124.0 118.0 1.0 -9999.0 105.0 127.0 161.0 162.0 151.0 146.0 121.0 101.0 121.0 96.0 100.0 104.0 114.0 121.0 146.0 106.0 98.0 91.0 108.0 83.0 87.0 101.0 72.0 86.0 40.0 72.0 68.0 48.0 78.0 85.0 82.0 43.0 64.0 51.0 68.0 59.0 67.0 72.0 77.0 116.0 113.0 109.0 89.0 94.0 58.0 71.0 58.0 63.0 55.0 28.0 18.0 
433.0 326.0 355.0 536.0 552.0 565.0 457.0 531.0 423.0 400.0 480.0 442.0 423.0 412.0 364.0 347.0 461.0 405.0 458.0 366.0 355.0 443.0 459.0 476.0 480.0 398.0 357.0 416.0 254.0 212.0 183.0 150.0 287.0 328.0 322.0 297.0 177.0 180.0 309.0 303.0 261.0 169.0 263.0 227.0 108.0 110.0 137.0 159.0 225.0 230.0 218.0 207.0 120.0 103.0 101.0 76.0 69.0 74.0 147.0 82.0 46.0 136.0 144.0 142.0 138.0 119.0 57.0 1.0 1.0 -9999.0 110.0 128.0 120.0 144.0 124.0 64.0 101.0 85.0 95.0 99.0 108.0 116.0 151.0 121.0 96.0 88.0 85.0 93.0 90.0 89.0 74.0 90.0 61.0 44.0 40.0 40.0 40.0 45.0 76.0 37.0 37.0 57.0 43.0 42.0 45.0 56.0 62.0 97.0 106.0 77.0 64.0 65.0 73.0 54.0 49.0 61.0 41.0 55.0 55.0 41.0 
329.0 344.0 489.0 511.0 456.0 578.0 496.0 463.0 450.0 423.0 514.0 466.0 437.0 482.0 466.0 413.0 373.0 485.0 412.0 404.0 479.0 479.0 446.0 295.0 251.0 249.0 438.0 393.0 238.0 217.0 314.0 160.0 191.0 283.0 232.0 331.0 216.0 313.0 337.0 262.0 310.0 177.0 163.0 140.0 210.0 137.0 208.0 255.0 268.0 207.0 188.0 155.0 200.0 195.0 193.0 186.0 177.0 182.0 185.0 183.0 176.0 174.0 109.0 89.0 136.0 49.0 32.0 1.0 -9999.0 -9999.0 52.0 102.0 116.0 105.0 49.0 48.0 56.0 114.0 116.0 120.0 137.0 143.0 143.0 101.0 111.0 106.0 81.0 77.0 74.0 68.0 68.0 82.0 81.0 78.0 42.0 61.0 29.0 24.0 65.0 28.0 49.0 50.0 34.0 37.0 77.0 81.0 54.0 81.0 85.0 88.0 77.0 55.0 71.0 70.0 60.0 41.0 35.0 33.0 55.0 53.0 
353.0 467.0 354.0 374.0 387.0 576.0 574.0 569.0 531.0 459.0 462.0 528.0 507.0 405.0 396.0 385.0 509.0 456.0 437.0 513.0 358.0 488.0 318.0 463.0 282.0 237.0 209.0 204.0 190.0 186.0 299.0 167.0 167.0 186.0 238.0 373.0 279.0 361.0 335.0 328.0 207.0 185.0 170.0 281.0 189.0 243.0 237.0 175.0 261.0 254.0 178.0 209.0 96.0 96.0 74.0 66.0 62.0 180.0 188.0 186.0 138.0 111.0 155.0 69.0 54.0 38.0 92.0 80.0 1.0 -9999.0 76.0 36.0 28.0 33.0 37.0 73.0 60.0 97.0 75.0 107.0 128.0 91.0 125.0 81.0 101.0 79.0 90.0 83.0 84.0 83.0 75.0 58.0 71.0 76.0 44.0 64.0 63.0 24.0 45.0 20.0 30.0 40.0 27.0 32.0 78.0 81.0 66.0 52.0 57.0 49.0 69.0 64.0 43.0 41.0 40.0 54.0 52.0 31.0 28.0 56.0 
457.0 386.0 404.0 483.0 386.0 416.0 526.0 554.0 553.0 548.0 551.0 523.0 449.0 415.0 418.0 407.0 511.0 524.0 513.0 456.0 365.0 346.0 354.0 494.0 376.0 267.0 367.0 205.0 327.0 188.0 172.0 171.0 308.0 181.0 205.0 242.0 400.0 345.0 258.0 224.0 298.0 209.0 288.0 216.0 259.0 185.0 177.0 153.0 136.0 124.0 196.0 112.0 96.0 148.0 94.0 67.0 62.0 94.0 65.0 162.0 163.0 153.0 135.0 121.0 99.0 32.0 25.0 20.0 1.0 66.0 21.0 21.0 66.0 93.0 98.0 99.0 99.0 69.0 94.0 97.0 72.0 100.0 66.0 66.0 68.0 66.0 87.0 87.0 84.0 80.0 61.0 79.0 64.0 44.0 56.0 61.0 27.0 25.0 16.0 13.0 38.0 20.0 38.0 48.0 36.0 54.0 40.0 56.0 44.0 45.0 50.0 48.0 44.0 70.0 39.0 32.0 29.0 51.0 51.0 26.0 
394.0 481.0 400.0 418.0 508.0 420.0 454.0 477.0 547.0 546.0 503.0 479.0 467.0 446.0 440.0 523.0 441.0 421.0 405.0 372.0 493.0 506.0 484.0 502.0 496.0 432.0 386.0 400.0 192.0 183.0 187.0 234.0 337.0 210.0 207.0 228.0 371.0 294.0 352.0 254.0 271.0 324.0 238.0 210.0 203.0 261.0 167.0 220.0 145.0 200.0 118.0 114.0 113.0 156.0 190.0 126.0 158.0 129.0 65.0 65.0 73.0 61.0 109.0 127.0 76.0 105.0 99.0 49.0 1.0 -9999.0 52.0 20.0 34.0 57.0 96.0 75.0 98.0 95.0 68.0 59.0 82.0 85.0 68.0 56.0 71.0 73.0 77.0 68.0 81.0 76.0 72.0 50.0 46.0 55.0 38.0 31.0 25.0 49.0 41.0 28.0 28.0 16.0 38.0 25.0 33.0 48.0 36.0 53.0 32.0 56.0 67.0 77.0 52.0 46.0 57.0 47.0 24.0 21.0 51.0 20.0 
465.0 494.0 488.0 423.0 505.0 466.0 526.0 536.0 468.0 534.0 503.0 534.0 468.0 509.0 533.0 507.0 533.0 542.0 441.0 503.0 291.0 285.0 387.0 239.0 228.0 223.0 195.0 192.0 191.0 190.0 335.0 379.0 450.0 250.0 388.0 248.0 249.0 383.0 275.0 357.0 346.0 262.0 308.0 324.0 293.0 180.0 173.0 156.0 254.0 165.0 235.0 150.0 206.0 218.0 211.0 119.0 110.0 84.0 100.0 65.0 34.0 33.0 106.0 115.0 118.0 109.0 93.0 85.0 68.0 1.0 -9999.0 24.0 39.0 80.0 89.0 51.0 62.0 89.0 85.0 69.0 47.0 63.0 46.0 48.0 50.0 53.0 71.0 61.0 76.0 72.0 58.0 51.0 62.0 43.0 43.0 67.0 76.0 32.0 20.0 34.0 21.0 15.0 37.0 36.0 37.0 44.0 27.0 29.0 64.0 51.0 59.0 78.0 74.0 68.0 54.0 28.0 22.0 15.0 15.0 13.0 
283.0 335.0 439.0 529.0 523.0 473.0 517.0 446.0 432.0 531.0 528.0 513.0 507.0 510.0 365.0 532.0 533.0 542.0 534.0 490.0 437.0 386.0 250.0 234.0 389.0 203.0 197.0 386.0 450.0 217.0 223.0 300.0 333.0 449.0 315.0 299.0 308.0 426.0 421.0 385.0 355.0 328.0 237.0 218.0 195.0 183.0 173.0 216.0 316.0 182.0 254.0 164.0 208.0 137.0 179.0 161.0 155.0 125.0 66.0 65.0 105.0 110.0 32.0 51.0 92.0 20.0 19.0 19.0 61.0 1.0 -9999.0 22.0 78.0 77.0 35.0 67.0 41.0 70.0 48.0 53.0 39.0 40.0 43.0 65.0 70.0 70.0 70.0 55.0 68.0 65.0 46.0 61.0 56.0 80.0 60.0 61.0 40.0 52.0 36.0 33.0 19.0 12.0 14.0 16.0 15.0 22.0 22.0 27.0 74.0 75.0 75.0 64.0 71.0 70.0 69.0 61.0 59.0 42.0 41.0 15.0 
219.0 433.0 282.0 521.0 507.0 468.0 448.0 442.0 429.0 427.0 402.0 452.0 487.0 369.0 361.0 344.0 335.0 325.0 312.0 309.0 286.0 275.0 262.0 450.0 446.0 231.0 228.0 405.0 458.0 242.0 233.0 407.0 348.0 353.0 347.0 368.0 454.0 340.0 327.0 290.0 257.0 247.0 362.0 222.0 210.0 336.0 220.0 315.0 219.0 209.0 275.0 173.0 144.0 129.0 108.0 91.0 83.0 73.0 145.0 130.0 66.0 114.0 90.0 24.0 23.0 50.0 53.0 15.0 1.0 1.0 -9999.0 58.0 62.0 27.0 21.0 64.0 27.0 36.0 62.0 31.0 47.0 40.0 46.0 50.0 72.0 72.0 48.0 48.0 63.0 35.0 54.0 51.0 81.0 80.0 41.0 32.0 33.0 43.0 38.0 17.0 13.0 1.0 35.0 38.0 39.0 51.0 64.0 65.0 70.0 67.0 55.0 68.0 50.0 66.0 44.0 62.0 58.0 39.0 37.0 20.0 
265.0 362.0 240.0 292.0 313.0 515.0 466.0 498.0 490.0 415.0 482.0 386.0 381.0 444.0 382.0 350.0 452.0 336.0 465.0 318.0 315.0 450.0 349.0 484.0 334.0 294.0 237.0 252.0 405.0 272.0 310.0 361.0 480.0 380.0 477.0 478.0 453.0 350.0 397.0 376.0 272.0 379.0 280.0 369.0 261.0 351.0 266.0 353.0 298.0 233.0 299.0 276.0 247.0 223.0 201.0 128.0 175.0 129.0 160.0 110.0 113.0 48.0 37.0 32.0 25.0 21.0 19.0 47.0 1.0 -9999.0 -9999.0 15.0 14.0 14.0 17.0 22.0 25.0 25.0 25.0 63.0 66.0 45.0 49.0 75.0 74.0 47.0 58.0 35.0 25.0 52.0 43.0 72.0 76.0 77.0 38.0 31.0 41.0 21.0 33.0 31.0 13.0 1.0 36.0 16.0 22.0 46.0 30.0 41.0 66.0 63.0 46.0 65.0 64.0 43.0 34.0 30.0 29.0 22.0 16.0 18.0 
168.0 210.0 342.0 368.0 380.0 271.0 500.0 495.0 496.0 488.0 479.0 385.0 481.0 408.0 500.0 372.0 509.0 514.0 500.0 479.0 516.0 507.0 489.0 480.0 465.0 256.0 251.0 460.0 300.0 297.0 477.0 482.0 514.0 371.0 485.0 494.0 437.0 420.0 265.0 353.0 362.0 269.0 388.0 376.0 370.0 351.0 354.0 286.0 335.0 237.0 241.0 177.0 223.0 209.0 205.0 189.0 176.0 156.0 159.0 154.0 119.0 66.0 97.0 42.0 64.0 64.0 72.0 44.0 1.0 -9999.0 23.0 15.0 76.0 73.0 73.0 56.0 33.0 45.0 34.0 54.0 69.0 70.0 66.0 57.0 67.0 44.0 55.0 54.0 24.0 46.0 38.0 73.0 52.0 49.0 59.0 32.0 41.0 35.0 17.0 15.0 1.0 1.0 15.0 27.0 13.0 19.0 28.0 57.0 46.0 54.0 40.0 56.0 43.0 56.0 40.0 45.0 44.0 34.0 34.0 18.0 
155.0 182.0 193.0 213.0 223.0 248.0 284.0 333.0 505.0 434.0 429.0 416.0 503.0 513.0 490.0 501.0 406.0 393.0 376.0 350.0 345.0 360.0 476.0 429.0 275.0 264.0 463.0 464.0 462.0 433.0 458.0 345.0 481.0 424.0 284.0 416.0 240.0 245.0 227.0 216.0 208.0 240.0 252.0 363.0 360.0 224.0 286.0 215.0 281.0 198.0 259.0 173.0 145.0 132.0 119.0 187.0 174.0 73.0 134.0 115.0 111.0 100.0 57.0 86.0 81.0 75.0 26.0 21.0 47.0 39.0 -9999.0 42.0 19.0 21.0 22.0 24.0 69.0 71.0 70.0 68.0 67.0 49.0 38.0 61.0 42.0 39.0 32.0 22.0 22.0 28.0 70.0 73.0 69.0 41.0 57.0 63.0 48.0 24.0 31.0 32.0 1.0 17.0 20.0 12.0 10.0 38.0 52.0 32.0 36.0 54.0 34.0 51.0 43.0 36.0 38.0 34.0 42.0 30.0 28.0 5.0 
152.0 193.0 337.0 331.0 240.0 255.0 278.0 501.0 502.0 508.0 463.0 445.0 433.0 516.0 525.0 515.0 513.0 447.0 461.0 331.0 322.0 312.0 304.0 291.0 287.0 440.0 440.0 446.0 383.0 440.0 278.0 287.0 372.0 208.0 340.0 221.0 193.0 320.0 331.0 179.0 172.0 317.0 192.0 282.0 236.0 191.0 267.0 177.0 241.0 165.0 239.0 231.0 186.0 125.0 96.0 72.0 122.0 56.0 88.0 32.0 31.0 26.0 23.0 68.0 34.0 75.0 59.0 47.0 11.0 24.0 26.0 -9999.0 70.0 70.0 64.0 62.0 37.0 34.0 64.0 26.0 55.0 36.0 24.0 27.0 47.0 43.0 38.0 21.0 22.0 27.0 33.0 65.0 55.0 55.0 38.0 63.0 33.0 45.0 42.0 35.0 1.0 14.0 20.0 19.0 27.0 16.0 23.0 27.0 48.0 34.0 41.0 27.0 28.0 42.0 28.0 43.0 26.0 18.0 24.0 14.0 
191.0 269.0 207.0 360.0 387.0 259.0 276.0 289.0 328.0 513.0 516.0 451.0 525.0 449.0 442.0 414.0 389.0 369.0 429.0 335.0 324.0 327.0 406.0 310.0 462.0 441.0 426.0 274.0 395.0 375.0 233.0 336.0 270.0 306.0 147.0 152.0 294.0 293.0 215.0 163.0 141.0 281.0 138.0 258.0 194.0 150.0 205.0 150.0 218.0 176.0 156.0 144.0 177.0 160.0 142.0 114.0 59.0 82.0 43.0 33.0 72.0 26.0 21.0 16.0 15.0 15.0 20.0 21.0 17.0 22.0 21.0 -9999.0 63.0 63.0 18.0 24.0 48.0 19.0 33.0 18.0 18.0 35.0 18.0 18.0 24.0 37.0 20.0 19.0 19.0 42.0 43.0 29.0 55.0 35.0 32.0 58.0 55.0 44.0 13.0 20.0 1.0 -9999.0 17.0 17.0 26.0 29.0 43.0 47.0 46.0 40.0 35.0 33.0 18.0 37.0 37.0 19.0 39.0 29.0 2.0 17.0 
219.0 167.0 181.0 225.0 407.0 413.0 254.0 402.0 426.0 371.0 511.0 507.0 500.0 412.0 475.0 467.0 470.0 425.0 375.0 468.0 467.0 348.0 335.0 327.0 325.0 276.0 235.0 216.0 193.0 191.0 309.0 306.0 135.0 261.0 118.0 228.0 151.0 173.0 150.0 236.0 130.0 235.0 218.0 103.0 142.0 135.0 176.0 152.0 96.0 181.0 119.0 114.0 162.0 121.0 141.0 83.0 114.0 108.0 92.0 78.0 72.0 58.0 54.0 38.0 27.0 12.0 16.0 34.0 30.0 22.0 22.0 1.0 43.0 17.0 16.0 16.0 21.0 16.0 20.0 20.0 20.0 16.0 27.0 16.0 26.0 16.0 15.0 20.0 17.0 18.0 33.0 25.0 52.0 51.0 20.0 23.0 17.0 14.0 13.0 18.0 14.0 1.0 -9999.0 -9999.0 1.0 1.0 -9999.0 -9999.0 -9999.0 -9999.0 -9999.0 -9999.0 -9999.0 -9999.0 -9999.0 27.0 29.0 23.0 15.0 13.0 
126.0 223.0 263.0 195.0 341.0 226.0 384.0 274.0 448.0 352.0 349.0 446.0 340.0 467.0 320.0 342.0 477.0 468.0 459.0 449.0 373.0 483.0 484.0 482.0 437.0 428.0 432.0 337.0 334.0 181.0 158.0 143.0 114.0 108.0 90.0 96.0 249.0 255.0 232.0 117.0 104.0 90.0 73.0 67.0 71.0 134.0 84.0 135.0 76.0 129.0 141.0 99.0 136.0 105.0 127.0 123.0 117.0 100.0 91.0 65.0 30.0 45.0 17.0 13.0 30.0 13.0 15.0 31.0 15.0 20.0 26.0 1.0 -9999.0 21.0 20.0 20.0 21.0 20.0 1.0 1.0 1.0 -9999.0 -9999.0 25.0 16.0 17.0 21.0 21.0 22.0 22.0 17.0 -9999.0 -9999.0 -9999.0 -9999.0 -9999.0 -9999.0 -9999.0 -9999.0 -9999.0 -9999.0 -9999.0 -9999.0 -9999.0 -9999.0 -9999.0 -9999.0 -9999.0 -9999.0 -9999.0 -9999.0 -9999.0 -9999.0 -9999.0 -9999.0 -9999.0 -9999.0 -9999.0 19.0 17.0 
122.0 141.0 268.0 181.0 195.0 363.0 236.0 275.0 424.0 450.0 447.0 313.0 325.0 382.0 280.0 286.0 438.0 306.0 453.0 453.0 440.0 317.0 272.0 227.0 212.0 269.0 424.0 383.0 195.0 329.0 302.0 250.0 253.0 255.0 80.0 77.0 78.0 136.0 240.0 187.0 225.0 188.0 158.0 61.0 47.0 43.0 118.0 49.0 98.0 101.0 112.0 81.0 96.0 119.0 81.0 108.0 62.0 34.0 31.0 48.0 43.0 18.0 14.0 12.0 14.0 12.0 19.0 26.0 21.0 16.0 23.0 1.0 -9999.0 16.0 20.0 21.0 16.0 20.0 11.0 14.0 1.0 -9999.0 -9999.0 23.0 22.0 -9999.0 -9999.0 -9999.0 -9999.0 -9999.0 -9999.0 -9999.0 -9999.0 -9999.0 -9999.0 -9999.0 -9999.0 -9999.0 -9999.0 -9999.0 -9999.0 -9999.0 -9999.0 -9999.0 -9999.0 -9999.0 -9999.0 -9999.0 -9999.0 -9999.0 -9999.0 -9999.0 -9999.0 -9999.0 -9999.0 -9999.0 -9999.0 -9999.0 -9999.0 -9999.0 
261.0 294.0 160.0 250.0 186.0 191.0 221.0 368.0 267.0 291.0 401.0 293.0 373.0 330.0 263.0 319.0 237.0 230.0 217.0 206.0 196.0 191.0 329.0 311.0 166.0 311.0 237.0 180.0 281.0 124.0 117.0 116.0 104.0 94.0 92.0 74.0 59.0 58.0 122.0 210.0 189.0 176.0 168.0 126.0 113.0 31.0 30.0 89.0 45.0 60.0 62.0 99.0 120.0 108.0 58.0 88.0 48.0 51.0 27.0 21.0 44.0 20.0 50.0 40.0 11.0 20.0 17.0 18.0 26.0 16.0 17.0 24.0 -9999.0 20.0 16.0 17.0 16.0 21.0 16.0 21.0 20.0 -9999.0 -9999.0 -9999.0 -9999.0 -9999.0 -9999.0 -9999.0 -9999.0 -9999.0 -9999.0 -9999.0 -9999.0 -9999.0 -9999.0 -9999.0 -9999.0 -9999.0 -9999.0 -9999.0 -9999.0 -9999.0 -9999.0 -9999.0 -9999.0 -9999.0 -9999.0 -9999.0 -9999.0 -9999.0 -9999.0 -9999.0 -9999.0 -9999.0 -9999.0 -9999.0 -9999.0 -9999.0 -9999.0 -9999.0 
342.0 345.0 221.0 265.0 206.0 191.0 201.0 223.0 228.0 240.0 420.0 365.0 282.0 264.0 253.0 246.0 238.0 306.0 218.0 307.0 298.0 172.0 243.0 160.0 157.0 151.0 143.0 136.0 126.0 125.0 187.0 130.0 101.0 213.0 239.0 220.0 59.0 49.0 74.0 164.0 145.0 101.0 153.0 141.0 66.0 94.0 21.0 25.0 83.0 85.0 49.0 53.0 94.0 56.0 42.0 65.0 55.0 28.0 41.0 14.0 26.0 12.0 11.0 43.0 21.0 1.0 24.0 25.0 25.0 24.0 23.0 22.0 1.0 -9999.0 21.0 22.0 21.0 22.0 21.0 21.0 -9999.0 -9999.0 -9999.0 -9999.0 -9999.0 -9999.0 -9999.0 -9999.0 -9999.0 -9999.0 -9999.0 -9999.0 -9999.0 -9999.0 -9999.0 -9999.0 -9999.0 -9999.0 -9999.0 -9999.0 -9999.0 -9999.0 -9999.0 -9999.0 -9999.0 -9999.0 -9999.0 -9999.0 -9999.0 -9999.0 -9999.0 -9999.0 -9999.0 -9999.0 -9999.0 -9999.0 -9999.0 -9999.0 -9999.0 -9999.0 
337.0 253.0 238.0 266.0 345.0 334.0 226.0 254.0 365.0 353.0 265.0 316.0 283.0 268.0 275.0 327.0 337.0 347.0 308.0 221.0 244.0 173.0 161.0 233.0 234.0 235.0 165.0 225.0 132.0 225.0 221.0 220.0 195.0 201.0 108.0 169.0 163.0 42.0 152.0 143.0 155.0 87.0 86.0 134.0 35.0 87.0 14.0 17.0 30.0 35.0 66.0 68.0 66.0 59.0 38.0 34.0 29.0 36.0 25.0 22.0 1.0 1.0 -9999.0 -9999.0 -9999.0 -9999.0 -9999.0 -9999.0 -9999.0 -9999.0 -9999.0 22.0 26.0 -9999.0 -9999.0 -9999.0 -9999.0 -9999.0 -9999.0 -9999.0 -9999.0 -9999.0 -9999.0 -9999.0 -9999.0 -9999.0 -9999.0 -9999.0 -9999.0 -9999.0 -9999.0 -9999.0 -9999.0 -9999.0 -9999.0 -9999.0 -9999.0 -9999.0 -9999.0 -9999.0 -9999.0 -9999.0 -9999.0 -9999.0 -9999.0 -9999.0 -9999.0 -9999.0 -9999.0 -9999.0 -9999.0 -9999.0 -9999.0 -9999.0 -9999.0 -9999.0 -9999.0 -9999.0 -9999.0 -9999.0 
225.0 350.0 352.0 268.0 307.0 341.0 313.0 354.0 350.0 293.0 340.0 378.0 355.0 326.0 310.0 316.0 333.0 241.0 228.0 212.0 261.0 225.0 228.0 174.0 179.0 170.0 175.0 230.0 171.0 222.0 155.0 122.0 102.0 179.0 179.0 57.0 27.0 23.0 122.0 24.0 69.0 97.0 27.0 38.0 69.0 65.0 12.0 53.0 63.0 63.0 60.0 60.0 55.0 32.0 44.0 22.0 38.0 33.0 1.0 -9999.0 -9999.0 -9999.0 -9999.0 -9999.0 -9999.0 -9999.0 -9999.0 -9999.0 -9999.0 -9999.0 -9999.0 -9999.0 -9999.0 -9999.0 -9999.0 -9999.0 -9999.0 -9999.0 -9999.0 -9999.0 -9999.0 -9999.0 -9999.0 -9999.0 -9999.0 -9999.0 -9999.0 -9999.0 -9999.0 -9999.0 -9999.0 -9999.0 -9999.0 -9999.0 -9999.0 -9999.0 -9999.0 -9999.0 -9999.0 -9999.0 -9999.0 -9999.0 -9999.0 -9999.0 -9999.0 -9999.0 -9999.0 -9999.0 -9999.0 -9999.0 -9999.0 -9999.0 -9999.0 -9999.0 -9999.0 -9999.0 -9999.0 -9999.0 -9999.0 -9999.0 
200.0 255.0 316.0 343.0 345.0 341.0 277.0 246.0 261.0 244.0 239.0 261.0 244.0 234.0 253.0 251.0 270.0 284.0 284.0 300.0 194.0 181.0 167.0 148.0 219.0 142.0 216.0 149.0 157.0 166.0 198.0 111.0 93.0 76.0 63.0 50.0 40.0 20.0 20.0 17.0 17.0 16.0 51.0 58.0 32.0 58.0 12.0 11.0 57.0 52.0 42.0 51.0 28.0 42.0 1.0 1.0 1.0 -9999.0 -9999.0 -9999.0 -9999.0 -9999.0 -9999.0 -9999.0 -9999.0 -9999.0 -9999.0 -9999.0 -9999.0 -9999.0 -9999.0 -9999.0 -9999.0 -9999.0 -9999.0 -9999.0 -9999.0 -9999.0 -9999.0 -9999.0 -9999.0 -9999.0 -9999.0 -9999.0 -9999.0 -9999.0 -9999.0 -9999.0 -9999.0 -9999.0 -9999.0 -9999.0 -9999.0 -9999.0 -9999.0 -9999.0 -9999.0 -9999.0 -9999.0 -9999.0 -9999.0 -9999.0 -9999.0 -9999.0 -9999.0 -9999.0 -9999.0 -9999.0 -9999.0 -9999.0 -9999.0 -9999.0 -9999.0 -9999.0 -9999.0 -9999.0 -9999.0 -9999.0 -9999.0 -9999.0 
194.0 287.0 247.0 235.0 227.0 214.0 214.0 318.0 344.0 245.0 234.0 213.0 193.0 184.0 195.0 233.0 215.0 218.0 232.0 272.0 267.0 183.0 247.0 201.0 180.0 130.0 128.0 128.0 212.0 145.0 167.0 162.0 89.0 73.0 73.0 130.0 130.0 122.0 115.0 67.0 27.0 14.0 13.0 59.0 59.0 54.0 13.0 40.0 25.0 43.0 42.0 1.0 -9999.0 27.0 1.0 -9999.0 -9999.0 -9999.0 -9999.0 -9999.0 -9999.0 -9999.0 -9999.0 -9999.0 -9999.0 -9999.0 -9999.0 -9999.0 -9999.0 -9999.0 -9999.0 -9999.0 -9999.0 -9999.0 -9999.0 -9999.0 -9999.0 -9999.0 -9999.0 -9999.0 -9999.0 -9999.0 -9999.0 -9999.0 -9999.0 -9999.0 -9999.0 -9999.0 -9999.0 -9999.0 -9999.0 -9999.0 -9999.0 -9999.0 -9999.0 -9999.0 -9999.0 -9999.0 -9999.0 -9999.0 -9999.0 -9999.0 -9999.0 -9999.0 -9999.0 -9999.0 -9999.0 -9999.0 -9999.0 -9999.0 -9999.0 -9999.0 -9999.0 -9999.0 -9999.0 -9999.0 -9999.0 -9999.0 -9999.0 -9999.0 
186.0 209.0 265.0 193.0 250.0 201.0 268.0 314.0 353.0 354.0 357.0 351.0 286.0 220.0 153.0 221.0 172.0 181.0 208.0 202.0 184.0 162.0 151.0 142.0 134.0 150.0 149.0 124.0 110.0 186.0 101.0 93.0 133.0 141.0 138.0 127.0 94.0 124.0 93.0 101.0 88.0 66.0 13.0 56.0 18.0 45.0 32.0 29.0 10.0 10.0 -9999.0 -9999.0 1.0 -9999.0 -9999.0 -9999.0 -9999.0 -9999.0 -9999.0 -9999.0 -9999.0 -9999.0 -9999.0 -9999.0 -9999.0 -9999.0 -9999.0 -9999.0 -9999.0 -9999.0 -9999.0 -9999.0 -9999.0 -9999.0 -9999.0 -9999.0 -9999.0 -9999.0 -9999.0 -9999.0 -9999.0 -9999.0 -9999.0 -9999.0 -9999.0 -9999.0 -9999.0 -9999.0 -9999.0 -9999.0 -9999.0 -9999.0 -9999.0 -9999.0 -9999.0 -9999.0 -9999.0 -9999.0 -9999.0 -9999.0 -9999.0 -9999.0 -9999.0 -9999.0 -9999.0 -9999.0 -9999.0 -9999.0 -9999.0 -9999.0 -9999.0 -9999.0 -9999.0 -9999.0 -9999.0 -9999.0 -9999.0 -9999.0 -9999.0 -9999.0 
228.0 244.0 165.0 180.0 193.0 201.0 224.0 300.0 238.0 208.0 208.0 263.0 236.0 125.0 133.0 182.0 161.0 245.0 231.0 240.0 252.0 162.0 170.0 142.0 131.0 127.0 122.0 118.0 125.0 102.0 123.0 129.0 129.0 97.0 124.0 81.0 111.0 104.0 75.0 71.0 83.0 68.0 14.0 11.0 9.0 20.0 20.0 7.0 -9999.0 -9999.0 1.0 -9999.0 -9999.0 -9999.0 -9999.0 -9999.0 -9999.0 -9999.0 -9999.0 -9999.0 -9999.0 -9999.0 -9999.0 -9999.0 -9999.0 -9999.0 -9999.0 -9999.0 -9999.0 -9999.0 -9999.0 -9999.0 -9999.0 -9999.0 -9999.0 -9999.0 -9999.0 -9999.0 -9999.0 -9999.0 -9999.0 -9999.0 -9999.0 -9999.0 -9999.0 -9999.0 -9999.0 -9999.0 -9999.0 -9999.0 -9999.0 -9999.0 -9999.0 -9999.0 -9999.0 -9999.0 -9999.0 -9999.0 -9999.0 -9999.0 -9999.0 -9999.0 -9999.0 -9999.0 -9999.0 -9999.0 -9999.0 -9999.0 -9999.0 -9999.0 -9999.0 -9999.0 -9999.0 -9999.0 -9999.0 -9999.0 -9999.0 -9999.0 -9999.0 -9999.0 
116.0 141.0 155.0 308.0 194.0 287.0 274.0 276.0 265.0 263.0 186.0 233.0 111.0 292.0 208.0 138.0 143.0 171.0 259.0 222.0 238.0 244.0 230.0 202.0 175.0 136.0 140.0 144.0 96.0 94.0 75.0 119.0 84.0 56.0 54.0 59.0 61.0 84.0 55.0 70.0 43.0 55.0 39.0 22.0 6.0 14.0 1.0 -9999.0 -9999.0 -9999.0 -9999.0 -9999.0 -9999.0 -9999.0 -9999.0 -9999.0 -9999.0 -9999.0 -9999.0 -9999.0 -9999.0 -9999.0 -9999.0 -9999.0 -9999.0 -9999.0 -9999.0 -9999.0 -9999.0 -9999.0 -9999.0 -9999.0 -9999.0 -9999.0 -9999.0 -9999.0 -9999.0 -9999.0 -9999.0 -9999.0 -9999.0 -9999.0 -9999.0 -9999.0 -9999.0 -9999.0 -9999.0 -9999.0 -9999.0 -9999.0 -9999.0 -9999.0 -9999.0 -9999.0 -9999.0 -9999.0 -9999.0 -9999.0 -9999.0 -9999.0 -9999.0 -9999.0 -9999.0 -9999.0 -9999.0 -9999.0 -9999.0 -9999.0 -9999.0 -9999.0 -9999.0 -9999.0 -9999.0 -9999.0 -9999.0 -9999.0 -9999.0 -9999.0 -9999.0 -9999.0 
256.0 288.0 309.0 312.0 290.0 280.0 229.0 182.0 204.0 239.0 169.0 113.0 98.0 296.0 290.0 287.0 190.0 217.0 264.0 274.0 249.0 181.0 149.0 133.0 112.0 129.0 108.0 147.0 74.0 67.0 57.0 95.0 67.0 59.0 45.0 45.0 48.0 63.0 57.0 39.0 43.0 20.0 23.0 14.0 11.0 1.0 -9999.0 -9999.0 -9999.0 -9999.0 -9999.0 -9999.0 -9999.0 -9999.0 -9999.0 -9999.0 -9999.0 -9999.0 -9999.0 -9999.0 -9999.0 -9999.0 -9999.0 -9999.0 -9999.0 -9999.0 -9999.0 -9999.0 -9999.0 -9999.0 -9999.0 -9999.0 -9999.0 -9999.0 -9999.0 -9999.0 -9999.0 -9999.0 -9999.0 -9999.0 -9999.0 -9999.0 -9999.0 -9999.0 -9999.0 -9999.0 -9999.0 -9999.0 -9999.0 -9999.0 -9999.0 -9999.0 -9999.0 -9999.0 -9999.0 -9999.0 -9999.0 -9999.0 -9999.0 -9999.0 -9999.0 -9999.0 -9999.0 -9999.0 -9999.0 -9999.0 -9999.0 -9999.0 -9999.0 -9999.0 -9999.0 -9999.0 -9999.0 -9999.0 -9999.0 -9999.0 -9999.0 -9999.0 -9999.0 -9999.0 
147.0 90.0 120.0 94.0 166.0 151.0 132.0 215.0 271.0 275.0 109.0 88.0 79.0 203.0 142.0 263.0 194.0 305.0 300.0 281.0 362.0 397.0 328.0 277.0 113.0 124.0 129.0 87.0 67.0 76.0 52.0 41.0 53.0 52.0 48.0 43.0 51.0 49.0 34.0 22.0 11.0 22.0 1.0 1.0 1.0 36.0 -9999.0 -9999.0 -9999.0 -9999.0 -9999.0 -9999.0 -9999.0 -9999.0 -9999.0 -9999.0 -9999.0 -9999.0 -9999.0 -9999.0 -9999.0 -9999.0 -9999.0 -9999.0 -9999.0 -9999.0 -9999.0 -9999.0 -9999.0 -9999.0 -9999.0 -9999.0 -9999.0 -9999.0 -9999.0 -9999.0 -9999.0 -9999.0 -9999.0 -9999.0 -9999.0 -9999.0 -9999.0 -9999.0 -9999.0 -9999.0 -9999.0 -9999.0 -9999.0 -9999.0 -9999.0 -9999.0 -9999.0 -9999.0 -9999.0 -9999.0 -9999.0 -9999.0 -9999.0 -9999.0 -9999.0 -9999.0 -9999.0 -9999.0 -9999.0 -9999.0 -9999.0 -9999.0 -9999.0 -9999.0 -9999.0 -9999.0 -9999.0 -9999.0 -9999.0 -9999.0 -9999.0 -9999.0 -9999.0 -9999.0 
58.0 83.0 110.0 61.0 79.0 118.0 87.0 102.0 83.0 205.0 154.0 105.0 68.0 131.0 122.0 177.0 121.0 157.0 144.0 123.0 145.0 294.0 144.0 117.0 84.0 118.0 117.0 70.0 54.0 79.0 62.0 59.0 30.0 21.0 46.0 46.0 41.0 42.0 18.0 33.0 23.0 6.0 29.0 34.0 1.0 -9999.0 -9999.0 -9999.0 -9999.0 -9999.0 -9999.0 -9999.0 -9999.0 -9999.0 -9999.0 -9999.0 -9999.0 -9999.0 -9999.0 -9999.0 -9999.0 -9999.0 -9999.0 -9999.0 -9999.0 -9999.0 -9999.0 -9999.0 -9999.0 -9999.0 -9999.0 -9999.0 -9999.0 -9999.0 -9999.0 -9999.0 -9999.0 -9999.0 -9999.0 -9999.0 -9999.0 -9999.0 -9999.0 -9999.0 -9999.0 -9999.0 -9999.0 -9999.0 -9999.0 -9999.0 -9999.0 -9999.0 -9999.0 -9999.0 -9999.0 -9999.0 -9999.0 -9999.0 -9999.0 -9999.0 -9999.0 -9999.0 -9999.0 -9999.0 -9999.0 -9999.0 -9999.0 -9999.0 -9999.0 -9999.0 -9999.0 -9999.0 -9999.0 -9999.0 -9999.0 -9999.0 -9999.0 -9999.0 -9999.0 -9999.0 
33.0 63.0 49.0 39.0 46.0 50.0 70.0 83.0 53.0 50.0 66.0 69.0 53.0 74.0 94.0 75.0 137.0 138.0 121.0 91.0 128.0 100.0 129.0 126.0 111.0 85.0 68.0 46.0 37.0 53.0 28.0 27.0 53.0 39.0 26.0 37.0 16.0 34.0 6.0 5.0 29.0 32.0 21.0 -9999.0 -9999.0 -9999.0 -9999.0 -9999.0 -9999.0 -9999.0 -9999.0 -9999.0 -9999.0 -9999.0 -9999.0 -9999.0 -9999.0 -9999.0 -9999.0 -9999.0 -9999.0 -9999.0 -9999.0 -9999.0 -9999.0 -9999.0 -9999.0 -9999.0 -9999.0 -9999.0 -9999.0 -9999.0 -9999.0 -9999.0 -9999.0 -9999.0 -9999.0 -9999.0 -9999.0 -9999.0 -9999.0 -9999.0 -9999.0 -9999.0 -9999.0 -9999.0 -9999.0 -9999.0 -9999.0 -9999.0 -9999.0 -9999.0 -9999.0 -9999.0 -9999.0 -9999.0 -9999.0 -9999.0 -9999.0 -9999.0 -9999.0 -9999.0 -9999.0 -9999.0 -9999.0 -9999.0 -9999.0 -9999.0 -9999.0 -9999.0 -9999.0 -9999.0 -9999.0 -9999.0 -9999.0 -9999.0 -9999.0 -9999.0 -9999.0 -9999.0 
21.0 37.0 53.0 34.0 53.0 36.0 38.0 47.0 42.0 40.0 51.0 41.0 49.0 62.0 65.0 58.0 58.0 85.0 68.0 85.0 69.0 59.0 62.0 111.0 49.0 43.0 26.0 19.0 18.0 36.0 20.0 17.0 34.0 10.0 10.0 14.0 5.0 11.0 5.0 19.0 31.0 -9999.0 -9999.0 -9999.0 -9999.0 -9999.0 -9999.0 -9999.0 -9999.0 -9999.0 -9999.0 -9999.0 -9999.0 -9999.0 -9999.0 -9999.0 -9999.0 -9999.0 -9999.0 -9999.0 -9999.0 -9999.0 -9999.0 -9999.0 -9999.0 -9999.0 -9999.0 -9999.0 -9999.0 -9999.0 -9999.0 -9999.0 -9999.0 -9999.0 -9999.0 -9999.0 -9999.0 -9999.0 -9999.0 -9999.0 -9999.0 -9999.0 -9999.0 -9999.0 -9999.0 -9999.0 -9999.0 -9999.0 -9999.0 -9999.0 -9999.0 -9999.0 -9999.0 -9999.0 -9999.0 -9999.0 -9999.0 -9999.0 -9999.0 -9999.0 -9999.0 -9999.0 -9999.0 -9999.0 -9999.0 -9999.0 -9999.0 -9999.0 -9999.0 -9999.0 -9999.0 -9999.0 -9999.0 -9999.0 -9999.0 -9999.0 -9999.0 -9999.0 -9999.0 -9999.0 
6.0 13.0 48.0 20.0 44.0 22.0 23.0 50.0 48.0 33.0 41.0 33.0 48.0 97.0 85.0 78.0 53.0 79.0 78.0 43.0 42.0 68.0 45.0 76.0 36.0 51.0 61.0 16.0 11.0 9.0 28.0 8.0 21.0 22.0 5.0 2.0 19.0 31.0 28.0 -9999.0 -9999.0 -9999.0 -9999.0 -9999.0 -9999.0 -9999.0 -9999.0 -9999.0 -9999.0 -9999.0 -9999.0 -9999.0 -9999.0 -9999.0 -9999.0 -9999.0 -9999.0 -9999.0 -9999.0 -9999.0 -9999.0 -9999.0 -9999.0 -9999.0 -9999.0 -9999.0 -9999.0 -9999.0 -9999.0 -9999.0 -9999.0 -9999.0 -9999.0 -9999.0 -9999.0 -9999.0 -9999.0 -9999.0 -9999.0 -9999.0 -9999.0 -9999.0 -9999.0 -9999.0 -9999.0 -9999.0 -9999.0 -9999.0 -9999.0 -9999.0 -9999.0 -9999.0 -9999.0 -9999.0 -9999.0 -9999.0 -9999.0 -9999.0 -9999.0 -9999.0 -9999.0 -9999.0 -9999.0 -9999.0 -9999.0 -9999.0 -9999.0 -9999.0 -9999.0 -9999.0 -9999.0 -9999.0 -9999.0 -9999.0 -9999.0 -9999.0 -9999.0 -9999.0 -9999.0 -9999.0 
5.0 39.0 17.0 37.0 12.0 12.0 12.0 28.0 36.0 20.0 24.0 39.0 89.0 97.0 58.0 58.0 45.0 50.0 73.0 36.0 54.0 29.0 53.0 32.0 28.0 26.0 25.0 53.0 51.0 34.0 7.0 6.0 1.0 1.0 34.0 32.0 1.0 -9999.0 -9999.0 -9999.0 -9999.0 -9999.0 -9999.0 -9999.0 -9999.0 -9999.0 -9999.0 -9999.0 -9999.0 -9999.0 -9999.0 -9999.0 -9999.0 -9999.0 -9999.0 -9999.0 -9999.0 -9999.0 -9999.0 -9999.0 -9999.0 -9999.0 -9999.0 -9999.0 -9999.0 -9999.0 -9999.0 -9999.0 -9999.0 -9999.0 -9999.0 -9999.0 -9999.0 -9999.0 -9999.0 -9999.0 -9999.0 -9999.0 -9999.0 -9999.0 -9999.0 -9999.0 -9999.0 -9999.0 -9999.0 -9999.0 -9999.0 -9999.0 -9999.0 -9999.0 -9999.0 -9999.0 -9999.0 -9999.0 -9999.0 -9999.0 -9999.0 -9999.0 -9999.0 -9999.0 -9999.0 -9999.0 -9999.0 -9999.0 -9999.0 -9999.0 -9999.0 -9999.0 -9999.0 -9999.0 -9999.0 -9999.0 -9999.0 -9999.0 -9999.0 -9999.0 -9999.0 -9999.0 -9999.0 -9999.0 
5.0 1.0 30.0 33.0 34.0 9.0 8.0 20.0 12.0 21.0 13.0 19.0 50.0 74.0 44.0 69.0 34.0 63.0 62.0 57.0 27.0 20.0 17.0 50.0 21.0 34.0 11.0 39.0 16.0 33.0 32.0 19.0 1.0 23.0 -9999.0 -9999.0 -9999.0 -9999.0 -9999.0 -9999.0 -9999.0 -9999.0 -9999.0 -9999.0 -9999.0 -9999.0 -9999.0 -9999.0 -9999.0 -9999.0 -9999.0 -9999.0 -9999.0 -9999.0 -9999.0 -9999.0 -9999.0 -9999.0 -9999.0 -9999.0 -9999.0 -9999.0 -9999.0 -9999.0 -9999.0 -9999.0 -9999.0 -9999.0 -9999.0 -9999.0 -9999.0 -9999.0 -9999.0 -9999.0 -9999.0 -9999.0 -9999.0 -9999.0 -9999.0 -9999.0 -9999.0 -9999.0 -9999.0 -9999.0 -9999.0 -9999.0 -9999.0 -9999.0 -9999.0 -9999.0 -9999.0 -9999.0 -9999.0 -9999.0 -9999.0 -9999.0 -9999.0 -9999.0 -9999.0 -9999.0 -9999.0 -9999.0 -9999.0 -9999.0 -9999.0 -9999.0 -9999.0 -9999.0 -9999.0 -9999.0 -9999.0 -9999.0 -9999.0 -9999.0 -9999.0 -9999.0 -9999.0 -9999.0 -9999.0 -9999.0 
20.0 1.0 24.0 26.0 16.0 23.0 5.0 7.0 7.0 17.0 20.0 15.0 45.0 26.0 23.0 42.0 21.0 43.0 22.0 40.0 19.0 36.0 33.0 9.0 30.0 31.0 28.0 6.0 22.0 1.0 11.0 1.0 22.0 -9999.0 -9999.0 -9999.0 -9999.0 -9999.0 -9999.0 -9999.0 -9999.0 -9999.0 -9999.0 -9999.0 -9999.0 -9999.0 -9999.0 -9999.0 -9999.0 -9999.0 -9999.0 -9999.0 -9999.0 -9999.0 -9999.0 -9999.0 -9999.0 -9999.0 -9999.0 -9999.0 -9999.0 -9999.0 -9999.0 -9999.0 -9999.0 -9999.0 -9999.0 -9999.0 -9999.0 -9999.0 -9999.0 -9999.0 -9999.0 -9999.0 -9999.0 -9999.0 -9999.0 -9999.0 -9999.0 -9999.0 -9999.0 -9999.0 -9999.0 -9999.0 -9999.0 -9999.0 -9999.0 -9999.0 -9999.0 -9999.0 -9999.0 -9999.0 -9999.0 -9999.0 -9999.0 -9999.0 -9999.0 -9999.0 -9999.0 -9999.0 -9999.0 -9999.0 -9999.0 -9999.0 -9999.0 -9999.0 -9999.0 -9999.0 -9999.0 -9999.0 -9999.0 -9999.0 -9999.0 -9999.0 -9999.0 -9999.0 -9999.0 -9999.0 -9999.0 -9999.0 
5.0 1.0 1.0 1.0 11.0 23.0 2.0 3.0 24.0 27.0 18.0 19.0 35.0 35.0 12.0 33.0 11.0 33.0 15.0 33.0 10.0 26.0 22.0 13.0 1.0 1.0 8.0 1.0 1.0 9.0 1.0 1.0 -9999.0 -9999.0 -9999.0 -9999.0 -9999.0 -9999.0 -9999.0 -9999.0 -9999.0 -9999.0 -9999.0 -9999.0 -9999.0 -9999.0 -9999.0 -9999.0 -9999.0 -9999.0 -9999.0 -9999.0 -9999.0 -9999.0 -9999.0 -9999.0 -9999.0 -9999.0 -9999.0 -9999.0 -9999.0 -9999.0 -9999.0 -9999.0 -9999.0 -9999.0 -9999.0 -9999.0 -9999.0 -9999.0 -9999.0 -9999.0 -9999.0 -9999.0 -9999.0 -9999.0 -9999.0 -9999.0 -9999.0 -9999.0 -9999.0 -9999.0 -9999.0 -9999.0 -9999.0 -9999.0 -9999.0 -9999.0 -9999.0 -9999.0 -9999.0 -9999.0 -9999.0 -9999.0 -9999.0 -9999.0 -9999.0 -9999.0 -9999.0 -9999.0 -9999.0 -9999.0 -9999.0 -9999.0 -9999.0 -9999.0 -9999.0 -9999.0 -9999.0 -9999.0 -9999.0 -9999.0 -9999.0 -9999.0 -9999.0 -9999.0 -9999.0 -9999.0 -9999.0 -9999.0 
5.0 8.0 7.0 22.0 23.0 25.0 1.0 9.0 34.0 33.0 7.0 5.0 5.0 20.0 7.0 4.0 13.0 15.0 5.0 16.0 1.0 8.0 1.0 1.0 1.0 -9999.0 1.0 8.0 1.0 1.0 -9999.0 -9999.0 -9999.0 -9999.0 -9999.0 -9999.0 -9999.0 -9999.0 -9999.0 -9999.0 -9999.0 -9999.0 -9999.0 -9999.0 -9999.0 -9999.0 -9999.0 -9999.0 -9999.0 -9999.0 -9999.0 -9999.0 -9999.0 -9999.0 -9999.0 -9999.0 -9999.0 -9999.0 -9999.0 -9999.0 -9999.0 -9999.0 -9999.0 -9999.0 -9999.0 -9999.0 -9999.0 -9999.0 -9999.0 -9999.0 -9999.0 -9999.0 -9999.0 -9999.0 -9999.0 -9999.0 -9999.0 -9999.0 -9999.0 -9999.0 -9999.0 -9999.0 -9999.0 -9999.0 -9999.0 -9999.0 -9999.0 -9999.0 -9999.0 -9999.0 -9999.0 -9999.0 -9999.0 -9999.0 -9999.0 -9999.0 -9999.0 -9999.0 -9999.0 -9999.0 -9999.0 -9999.0 -9999.0 -9999.0 -9999.0 -9999.0 -9999.0 -9999.0 -9999.0 -9999.0 -9999.0 -9999.0 -9999.0 -9999.0 -9999.0 -9999.0 -9999.0 -9999.0 -9999.0 -9999.0 
3.0 1.0 7.0 9.0 16.0 13.0 6.0 1.0 1.0 12.0 41.0 2.0 2.0 2.0 3.0 14.0 7.0 3.0 7.0 1.0 -9999.0 -9999.0 -9999.0 -9999.0 -9999.0 9.0 8.0 1.0 -9999.0 -9999.0 -9999.0 -9999.0 -9999.0 -9999.0 -9999.0 -9999.0 -9999.0 -9999.0 -9999.0 -9999.0 -9999.0 -9999.0 -9999.0 -9999.0 -9999.0 -9999.0 -9999.0 -9999.0 -9999.0 -9999.0 -9999.0 -9999.0 -9999.0 -9999.0 -9999.0 -9999.0 -9999.0 -9999.0 -9999.0 -9999.0 -9999.0 -9999.0 -9999.0 -9999.0 -9999.0 -9999.0 -9999.0 -9999.0 -9999.0 -9999.0 -9999.0 -9999.0 -9999.0 -9999.0 -9999.0 -9999.0 -9999.0 -9999.0 -9999.0 -9999.0 -9999.0 -9999.0 -9999.0 -9999.0 -9999.0 -9999.0 -9999.0 -9999.0 -9999.0 -9999.0 -9999.0 -9999.0 -9999.0 -9999.0 -9999.0 -9999.0 -9999.0 -9999.0 -9999.0 -9999.0 -9999.0 -9999.0 -9999.0 -9999.0 -9999.0 -9999.0 -9999.0 -9999.0 -9999.0 -9999.0 -9999.0 -9999.0 -9999.0 -9999.0 -9999.0 -9999.0 -9999.0 -9999.0 -9999.0 -9999.0 
-9999.0 1.0 8.0 7.0 1.0 7.0 5.0 5.0 1.0 1.0 1.0 8.0 1.0 12.0 1.0 1.0 7.0 8.0 -9999.0 -9999.0 8.0 10.0 -9999.0 -9999.0 -9999.0 -9999.0 -9999.0 -9999.0 -9999.0 -9999.0 -9999.0 -9999.0 -9999.0 -9999.0 -9999.0 -9999.0 -9999.0 -9999.0 -9999.0 -9999.0 -9999.0 -9999.0 -9999.0 -9999.0 -9999.0 -9999.0 -9999.0 -9999.0 -9999.0 -9999.0 -9999.0 -9999.0 -9999.0 -9999.0 -9999.0 -9999.0 -9999.0 -9999.0 -9999.0 -9999.0 -9999.0 -9999.0 -9999.0 -9999.0 -9999.0 -9999.0 -9999.0 -9999.0 -9999.0 -9999.0 -9999.0 -9999.0 -9999.0 -9999.0 -9999.0 -9999.0 -9999.0 -9999.0 -9999.0 -9999.0 -9999.0 -9999.0 -9999.0 -9999.0 -9999.0 -9999.0 -9999.0 -9999.0 -9999.0 -9999.0 -9999.0 -9999.0 -9999.0 -9999.0 -9999.0 -9999.0 -9999.0 -9999.0 -9999.0 -9999.0 -9999.0 -9999.0 -9999.0 -9999.0 -9999.0 -9999.0 -9999.0 -9999.0 -9999.0 -9999.0 -9999.0 -9999.0 -9999.0 -9999.0 -9999.0 -9999.0 -9999.0 -9999.0 -9999.0 -9999.0 
